NCOLS 97
NROWS 39
xllcorner 902500
yllcorner 157500
cellsize 1000.0 
NODATA_value -9999
2.681419691557265651e+03 2.676428790705346728e+03 2.668759336590275325e+03 2.667186380543773794e+03 2.674317945991479064e+03 2.695363908096217074e+03 2.721764889449520524e+03 2.760802697992480262e+03 2.786473442001944022e+03 2.827781182208047539e+03 2.849256620198887049e+03 2.871164075868521650e+03 2.895777857807005148e+03 2.910001174672122033e+03 2.925436544245202185e+03 2.918740156769338228e+03 2.904879310831109251e+03 2.880316951623115074e+03 2.874615300995305006e+03 2.887665340380796351e+03 2.941229837364694049e+03 3.007776027007975699e+03 3.126443291783332370e+03 3.187995050656827971e+03 3.241286426568249226e+03 3.225429646758850595e+03 3.189409235581290886e+03 3.103298149327945794e+03 3.043141787442693840e+03 2.947275910951454989e+03 2.875294958797210711e+03 2.809865605763559415e+03 2.708604420099530671e+03 2.648528026917135776e+03 2.575955131490831263e+03 2.542078001611378113e+03 2.533487052379860870e+03 2.522169050753372176e+03 2.520438336263825022e+03 2.497447687482822403e+03 2.459681916251759958e+03 2.417935607251010879e+03 2.349186342557344688e+03 2.310257484782895517e+03 2.275070875793522191e+03 2.271020013226640458e+03 2.274964024426577453e+03 2.299432216739841351e+03 2.320940192820336506e+03 2.365750518500266026e+03 2.411303777506424012e+03 2.453071731413332145e+03 2.534756629779337345e+03 2.580507211286218080e+03 2.648250643125739316e+03 2.693940947730927746e+03 2.719148053254376009e+03 2.758744895104898660e+03 2.787526299337759156e+03 2.833620397566527572e+03 2.886452335526447769e+03 2.934309988420779064e+03 3.017482083049380435e+03 3.055186783289544564e+03 3.084377257057045426e+03 3.071342029766949963e+03 3.042154202909127434e+03 2.973490629425498355e+03 2.923333644300306332e+03 2.844829232977382162e+03 2.782930323173778106e+03 2.729116836263826372e+03 2.638004653636854528e+03 2.582323829205426591e+03 2.490606321590972129e+03 2.415475271745478949e+03 2.355424229085606385e+03 2.254873383216838192e+03 2.205485852062385220e+03 2.160670485355813526e+03 2.165873458783075876e+03 2.193580975400924672e+03 2.257808381712417031e+03 2.293128672504354199e+03 2.349390161044569595e+03 2.369065653384512188e+03 2.386062193400272918e+03 2.404928852547888255e+03 2.416829496997266688e+03 2.443987176693422498e+03 2.479189881707767199e+03 2.510805165467021197e+03 2.571240335729988601e+03 2.604264728731205196e+03 2.655455670810179527e+03 2.694819023981287501e+03 2.719300735448150590e+03
2.643730147990216665e+03 2.643618968657900041e+03 2.634338873160268577e+03 2.629975793412187159e+03 2.636106964797647834e+03 2.656232472957716709e+03 2.672802209718500308e+03 2.710795017169137736e+03 2.732407807615274578e+03 2.764703447483203945e+03 2.792596442725240649e+03 2.811551613741494293e+03 2.841269476808512536e+03 2.857598823247204564e+03 2.877585568657849308e+03 2.879631984665771142e+03 2.874257717315614627e+03 2.866739422055394698e+03 2.866222087535976243e+03 2.897883306436270232e+03 2.959526278791183813e+03 3.034683084047544980e+03 3.161088248867714356e+03 3.230551205954861871e+03 3.282173545385744092e+03 3.266494146033501693e+03 3.224913550079003926e+03 3.124308140701488355e+03 3.058044224781691810e+03 2.954016727143133267e+03 2.876373116045668667e+03 2.813958014654099316e+03 2.704956601428752947e+03 2.647362749099388111e+03 2.568987067667202155e+03 2.528994570836862749e+03 2.512853722576631753e+03 2.490360435948236955e+03 2.479320915241445164e+03 2.453329815802850590e+03 2.415541182413616298e+03 2.379391096984438718e+03 2.324296707142068499e+03 2.293193342302298788e+03 2.267930987181929595e+03 2.266113960413478708e+03 2.279918836947953878e+03 2.311524490336293638e+03 2.337084117052432703e+03 2.388377368202576690e+03 2.438091314949691878e+03 2.485953974966846545e+03 2.573757018985438208e+03 2.620139378918086095e+03 2.686467877114543171e+03 2.722931528571755734e+03 2.742217761726401477e+03 2.761668813651612709e+03 2.778347242650827866e+03 2.810978722726417345e+03 2.858258378351408737e+03 2.901138340227773369e+03 2.978721560096905705e+03 3.016407115333719503e+03 3.044336737563507995e+03 3.028084550615800708e+03 3.004332284508899647e+03 2.938042446018187093e+03 2.890985890608776572e+03 2.817473708310713391e+03 2.756322960675541708e+03 2.710012758492504418e+03 2.623972127615038517e+03 2.570028551999008869e+03 2.486874970308660522e+03 2.413840856358143355e+03 2.355784896951662631e+03 2.260008537353172869e+03 2.207534883186464413e+03 2.165140961830945798e+03 2.169329786190682171e+03 2.190931502721453398e+03 2.248166586748735426e+03 2.285256677528514047e+03 2.335744789058961942e+03 2.364882598626214531e+03 2.387479079480499877e+03 2.415861903647814870e+03 2.438042978359323115e+03 2.474487752829895271e+03 2.509306827936971331e+03 2.532612453825372086e+03 2.580977993367412182e+03 2.607747759951331773e+03 2.660628600540455864e+03 2.699125972710026872e+03 2.732767363222186759e+03
2.602293850565064531e+03 2.596363601759584526e+03 2.588602668752397221e+03 2.584353729090379602e+03 2.583128320678831187e+03 2.594184158707048937e+03 2.607402327129508194e+03 2.640004048388252613e+03 2.655830707319153589e+03 2.687267106197361954e+03 2.710976858164551686e+03 2.733764671272174382e+03 2.766497424479599886e+03 2.790400575734931863e+03 2.820448679393653492e+03 2.839186492388599163e+03 2.845513909571546719e+03 2.853885937583533632e+03 2.867131990682750711e+03 2.915088134910449753e+03 2.994751580047841799e+03 3.076006911942663010e+03 3.216004570445848458e+03 3.292108917362168995e+03 3.350939145860300869e+03 3.323957304758204828e+03 3.277160315494774750e+03 3.159278480539884185e+03 3.085198577483358804e+03 2.966713430602426342e+03 2.887648443823462458e+03 2.822994312452538452e+03 2.713484814601945345e+03 2.651514532799955759e+03 2.566539517762030300e+03 2.514407253978438348e+03 2.488122160492654984e+03 2.446726232292684472e+03 2.427811094957782643e+03 2.390273432222295014e+03 2.357100978519061300e+03 2.330995792036314015e+03 2.288624819215541720e+03 2.267698121011158037e+03 2.256990561370633714e+03 2.269049545826347185e+03 2.287646008811306274e+03 2.337412324937821722e+03 2.368673283467445799e+03 2.431865164846613879e+03 2.489053231454534398e+03 2.544134993361509714e+03 2.635664251923882148e+03 2.687600777291829672e+03 2.748966843782893193e+03 2.769842392778641624e+03 2.771816357187751692e+03 2.767340934917763207e+03 2.763127161349369544e+03 2.775636283834580354e+03 2.811159724374889720e+03 2.850293341269595203e+03 2.921518554220528131e+03 2.956944634392255466e+03 2.983588674667830219e+03 2.973573632105693378e+03 2.943342351183950541e+03 2.885305443990836920e+03 2.845083105346729553e+03 2.775555695031806863e+03 2.726874953511165586e+03 2.679092267064514999e+03 2.605847436125685817e+03 2.562597948878512398e+03 2.483793597275519460e+03 2.416088031220165249e+03 2.361039145643776919e+03 2.268920373110491710e+03 2.220105967373342537e+03 2.173984064134940127e+03 2.171192720681270202e+03 2.184610714962628663e+03 2.227790130262380899e+03 2.261936447284214864e+03 2.308094747911718059e+03 2.346786410601936041e+03 2.375166462028941169e+03 2.426062591359876933e+03 2.456609037011491637e+03 2.505704623383743638e+03 2.537127872284474051e+03 2.554733494269562016e+03 2.584340592244335767e+03 2.607738398649464671e+03 2.646781095751933663e+03 2.695354884169313664e+03 2.734610049886027355e+03
2.557112959427136502e+03 2.557807418099667302e+03 2.544640149200045471e+03 2.536680598622871912e+03 2.535343818305464993e+03 2.542566533631682432e+03 2.550001185586022075e+03 2.570608339018407150e+03 2.587162887452093400e+03 2.615936296311309889e+03 2.641665944418456093e+03 2.662854365041022902e+03 2.703022962630894654e+03 2.733614165398542809e+03 2.772463255275873507e+03 2.800572422104151428e+03 2.819339355191131290e+03 2.847467305984530412e+03 2.875535871740718449e+03 2.936202310136338838e+03 3.027233938478553227e+03 3.117219924961614197e+03 3.268146670423974228e+03 3.343692920696496003e+03 3.405821439122309584e+03 3.378323536213746593e+03 3.326368399805763602e+03 3.198563752534342257e+03 3.112088866741359652e+03 2.983155454923268735e+03 2.900763397263570823e+03 2.829022677054376345e+03 2.722833420544841829e+03 2.656867843836443626e+03 2.568599449281418856e+03 2.506064249379255671e+03 2.463866350087245792e+03 2.406092908972521400e+03 2.376426380499173774e+03 2.332996573986947624e+03 2.302111985228995763e+03 2.279339268594595069e+03 2.252329204733750430e+03 2.248281279804099540e+03 2.249551169831700918e+03 2.276052167553283198e+03 2.305259344159119792e+03 2.364243916665585857e+03 2.407438671058067030e+03 2.478967412286791387e+03 2.544502145991806174e+03 2.601266702865660591e+03 2.699291309272511171e+03 2.748026296241769614e+03 2.807593484813710802e+03 2.816582696845207010e+03 2.801540510379505577e+03 2.770657916266012762e+03 2.753425506862323346e+03 2.745087527762152604e+03 2.772141266897117021e+03 2.806275458801377681e+03 2.871969969241617491e+03 2.906772629997233707e+03 2.934142392596274476e+03 2.917997710534098587e+03 2.894893688137048230e+03 2.840470369807134830e+03 2.804390493663447614e+03 2.742525880368885737e+03 2.694540780731172163e+03 2.659968498879145045e+03 2.596283949452123125e+03 2.558775196440248692e+03 2.488146747476811470e+03 2.422796900364319299e+03 2.369678553564105187e+03 2.280618589261970556e+03 2.233932380762439607e+03 2.185888811785080179e+03 2.171647884722603976e+03 2.179091671966155445e+03 2.207294521230178361e+03 2.231442017529198438e+03 2.275788734862547699e+03 2.317865892637864363e+03 2.356844995915216714e+03 2.431681617509388161e+03 2.472094713601032254e+03 2.527125773888528329e+03 2.557078387125720383e+03 2.567079483038263334e+03 2.587938130579386780e+03 2.598279271785053879e+03 2.638998052012670996e+03 2.687296287572411529e+03 2.739465719640467796e+03
2.498157244057304979e+03 2.501108120914821029e+03 2.492302677025851608e+03 2.489576264379500572e+03 2.487856855965971590e+03 2.493453158964552131e+03 2.501748266892631818e+03 2.514580229199340010e+03 2.523113236772242544e+03 2.548866495858293547e+03 2.578158021400487996e+03 2.604970214091581511e+03 2.650605007454435054e+03 2.680209042339857206e+03 2.731736143953780811e+03 2.769786168693243326e+03 2.798639799021960698e+03 2.848329744281280000e+03 2.881418455763498969e+03 2.959021634910417561e+03 3.057069384209071814e+03 3.147646312430917078e+03 3.306262111886529965e+03 3.385762665808344536e+03 3.446114708604070984e+03 3.413144625937540695e+03 3.358355387321538728e+03 3.221355326798999158e+03 3.129565892956557491e+03 2.996553551357912511e+03 2.903812601677018847e+03 2.835404766843075322e+03 2.721296528103376659e+03 2.655905331768223732e+03 2.558277581303009356e+03 2.485890298762293241e+03 2.434349205495265778e+03 2.362921176902679690e+03 2.320060891650688063e+03 2.271918063522414741e+03 2.247308445036843750e+03 2.234289633432316350e+03 2.228154531140782183e+03 2.235197215797266836e+03 2.257763204986747041e+03 2.297811490960682477e+03 2.334011689127511090e+03 2.411912477809277334e+03 2.461008500411765453e+03 2.541165541955393110e+03 2.605910016611439914e+03 2.661908475831780834e+03 2.747315415496185324e+03 2.792960407737313290e+03 2.841802884270514824e+03 2.836320019729590058e+03 2.818268594577823478e+03 2.769921436221393378e+03 2.743423062636535178e+03 2.725657528050011933e+03 2.745127742314012266e+03 2.780311135258625654e+03 2.839210113406452365e+03 2.872951747287709168e+03 2.898536098168794979e+03 2.884984279503358721e+03 2.864157284481771967e+03 2.807432945476838995e+03 2.774127981174639444e+03 2.718562030471784965e+03 2.677543933984268733e+03 2.647005381255719385e+03 2.595193897185994047e+03 2.563978185938322440e+03 2.502691021405851188e+03 2.440307691929427165e+03 2.389810781941050664e+03 2.300392283417636008e+03 2.250274139974792888e+03 2.195108600544078399e+03 2.178646550183379077e+03 2.176318216771981497e+03 2.182369405511465629e+03 2.198732903230152260e+03 2.233641681427865024e+03 2.283982021075520151e+03 2.334904984353098826e+03 2.424876077199282008e+03 2.476378771529102778e+03 2.544331164809194888e+03 2.572194908229508201e+03 2.584999353934700594e+03 2.590732580366031016e+03 2.601445526249913655e+03 2.639594070701467899e+03 2.698581374199075071e+03 2.756758525738709068e+03
2.443769802674212769e+03 2.447191509108391529e+03 2.455538013341972601e+03 2.453155642663990420e+03 2.463832343592141569e+03 2.472006687742023587e+03 2.478784465271844510e+03 2.493745383124938144e+03 2.502723971942363278e+03 2.526626431439061889e+03 2.558033830117214166e+03 2.585028207767582444e+03 2.630359984480981893e+03 2.667415262316152166e+03 2.719051716595638482e+03 2.764740449466572500e+03 2.797682340368362475e+03 2.853072228577469559e+03 2.892512593438237218e+03 2.972410146563262060e+03 3.063349195817034342e+03 3.155929963354458778e+03 3.306127493606054486e+03 3.379818595882965838e+03 3.434267400328564236e+03 3.404542210085690840e+03 3.347913792476700564e+03 3.209367928043871416e+03 3.122829817926933629e+03 2.988834974435552795e+03 2.896340366798110608e+03 2.827421470321908146e+03 2.709111223005031206e+03 2.640360316672453791e+03 2.535235352291500931e+03 2.463167934960812545e+03 2.407030969980135069e+03 2.325967103724840399e+03 2.286934509317566153e+03 2.241239254472587618e+03 2.222935491123896554e+03 2.220896911012391229e+03 2.230403598353112102e+03 2.248948018394270548e+03 2.284906866195307884e+03 2.331462018627728412e+03 2.375159059711575992e+03 2.462114166973568445e+03 2.514855712120773660e+03 2.594287512515242270e+03 2.648728716266352876e+03 2.691536614979620026e+03 2.758401209755551463e+03 2.786920717108132521e+03 2.819469900641124696e+03 2.820848840598513561e+03 2.804264550622265233e+03 2.763982746339679579e+03 2.747715559302419479e+03 2.735213406014229349e+03 2.760731619905937350e+03 2.789930784676410894e+03 2.850867459316951681e+03 2.882115250668041426e+03 2.905954766545474286e+03 2.891571391963085716e+03 2.865613797608460118e+03 2.807417831209897031e+03 2.769277134961086176e+03 2.714532310615984443e+03 2.678211165713569699e+03 2.651461463006197846e+03 2.604360032186222270e+03 2.577725891167247028e+03 2.522738836263682060e+03 2.461857466012299028e+03 2.408109731776550689e+03 2.315652082307487944e+03 2.268782796305441025e+03 2.205338285932667077e+03 2.180832756941672415e+03 2.168382719447093223e+03 2.163185607308604176e+03 2.170149449991189158e+03 2.201874214793085230e+03 2.249159631937001450e+03 2.301844970596583607e+03 2.405777892323007109e+03 2.463429530083309601e+03 2.542729638388806961e+03 2.577787449727179592e+03 2.585295582156601995e+03 2.600730015651210124e+03 2.609149818464587497e+03 2.649551429652206934e+03 2.715235927741197429e+03 2.774848028890628939e+03
2.373033478098455362e+03 2.392083326638120980e+03 2.412888097282302624e+03 2.428611377284704304e+03 2.447704794032284553e+03 2.462001246205540156e+03 2.468029995574290751e+03 2.483609613050064581e+03 2.498441870916974494e+03 2.523389739261381692e+03 2.557716154807642852e+03 2.585417616899216682e+03 2.638593216550388206e+03 2.670498168327789699e+03 2.729758579502558405e+03 2.773725883566738503e+03 2.810384967372381197e+03 2.868260086467033034e+03 2.907465395631917545e+03 2.984560337932877701e+03 3.071685051613879750e+03 3.148761826074183773e+03 3.284282591724822396e+03 3.348008358286716884e+03 3.396786536403556056e+03 3.365333979814633949e+03 3.312286935020162673e+03 3.187863423935488754e+03 3.105402799461704944e+03 2.978294346069953917e+03 2.887017295420127084e+03 2.810891241937363702e+03 2.686325140917527278e+03 2.614944649760674565e+03 2.507556314146218028e+03 2.430436808307158572e+03 2.373185750237131742e+03 2.293244522984294690e+03 2.252637428695213657e+03 2.213655697393850915e+03 2.207931027596012882e+03 2.213812655037446802e+03 2.246893031679859178e+03 2.272663274087109130e+03 2.328632775959497849e+03 2.385939074729154527e+03 2.435651096731469352e+03 2.533940851749334797e+03 2.589694764489747286e+03 2.660337547619411453e+03 2.701566260479482935e+03 2.722565678331248364e+03 2.749378341791741605e+03 2.762137626200608338e+03 2.773178913072919386e+03 2.778016996526334424e+03 2.771562060133847353e+03 2.755029497540151169e+03 2.753970766693818405e+03 2.756229277962545439e+03 2.785912228242562833e+03 2.819814076810525876e+03 2.882679626404001283e+03 2.914142236036406302e+03 2.935005295355253111e+03 2.920688628479828367e+03 2.888474962536874955e+03 2.823287852582636333e+03 2.779682453992993942e+03 2.717849172512786936e+03 2.684056411156222111e+03 2.663905845067436076e+03 2.625515120479632060e+03 2.601055543169858538e+03 2.550732834199738591e+03 2.489714654364365742e+03 2.435593299941025180e+03 2.335935639008556336e+03 2.283064113729193195e+03 2.217578165481692395e+03 2.182417731238697343e+03 2.156840775013426537e+03 2.133967140612978710e+03 2.132470763127080772e+03 2.154395814468790377e+03 2.204656711697491119e+03 2.259761530770040281e+03 2.372323722848879697e+03 2.435410558482493798e+03 2.523000075102590017e+03 2.563542277333810489e+03 2.580724171060675417e+03 2.605308945712769400e+03 2.620374654597022527e+03 2.669517516085694297e+03 2.736829776507889619e+03 2.798397194454634700e+03
2.321092006393672364e+03 2.351574002621344789e+03 2.387942637104191817e+03 2.408806549789607743e+03 2.438247006955773941e+03 2.459678620081283952e+03 2.470533842387404093e+03 2.486727562588949240e+03 2.497516546926046431e+03 2.529771584982500372e+03 2.562391855100107932e+03 2.589426561041133027e+03 2.644381640409274951e+03 2.681231113118602025e+03 2.740982552080715777e+03 2.787755353555630336e+03 2.822331328727965229e+03 2.881446247310319450e+03 2.924228670828310896e+03 2.996879701487240254e+03 3.071336354735409259e+03 3.142724032282179451e+03 3.261769023580234261e+03 3.315580311568195611e+03 3.356599811722691356e+03 3.327875396012623696e+03 3.281395067706128884e+03 3.167694857027914168e+03 3.087056033196304270e+03 2.968607446015118512e+03 2.876390167738840773e+03 2.797012229382866281e+03 2.668572158408112045e+03 2.591413513834827427e+03 2.482318600881295424e+03 2.405381252525854052e+03 2.352918704221020107e+03 2.270028834546871167e+03 2.232819306119808516e+03 2.198921412432554007e+03 2.200913340887542290e+03 2.213550541846055239e+03 2.258363063717803470e+03 2.296362548831602908e+03 2.359151625892052380e+03 2.423913177606998033e+03 2.481099012393171961e+03 2.584485237260472786e+03 2.643352558308730295e+03 2.710265074987574280e+03 2.732004793486022663e+03 2.739235860383069848e+03 2.735444213856449551e+03 2.732393549231571797e+03 2.734715801923943673e+03 2.738356137246168146e+03 2.740869852105929567e+03 2.748981626738008345e+03 2.755880744277823396e+03 2.780885710569834828e+03 2.814270917187138366e+03 2.854964107762346430e+03 2.918374682713408674e+03 2.947987105669334596e+03 2.968553444658325589e+03 2.947729386703952514e+03 2.913597621949637869e+03 2.838906181407503482e+03 2.791484282845944108e+03 2.729511729729927083e+03 2.696515230945517033e+03 2.674561752969775625e+03 2.643776800172910498e+03 2.622192962825718496e+03 2.573224612327514933e+03 2.511912804182318268e+03 2.455003738811296444e+03 2.357770266689897653e+03 2.297897904699575065e+03 2.224480248113768994e+03 2.181340443234630584e+03 2.150111855451406882e+03 2.114398810532232801e+03 2.108138891015308218e+03 2.121280589671067901e+03 2.170978429606439477e+03 2.227112945672023670e+03 2.342888327157057120e+03 2.411266044293342020e+03 2.504045204573212686e+03 2.548317968299275435e+03 2.575826729722736673e+03 2.609293691274197499e+03 2.631570081649847452e+03 2.684422184743696107e+03 2.752533673752134291e+03 2.816282368014837175e+03
2.266075243773022976e+03 2.301902874801572125e+03 2.359115211733094839e+03 2.386562855097030933e+03 2.434390470482829187e+03 2.460893447524005296e+03 2.473520753282610713e+03 2.496359287247370958e+03 2.510714493792861958e+03 2.540844082259529841e+03 2.577390049031915169e+03 2.606019436924250840e+03 2.657992533722280314e+03 2.692864474139492813e+03 2.751596757931156390e+03 2.797889026534678123e+03 2.832612624386894822e+03 2.894660862456116774e+03 2.933194878616312508e+03 3.002624470541411029e+03 3.073615145149634827e+03 3.131734588113146401e+03 3.231710444499729874e+03 3.278394709267280632e+03 3.307762680301464115e+03 3.282286511958415758e+03 3.239905620195121628e+03 3.140146407536586139e+03 3.069079696507580138e+03 2.954100553283474710e+03 2.863003919606140244e+03 2.785678825212066386e+03 2.651768891141196036e+03 2.569805102202342368e+03 2.461479635414301356e+03 2.380390936743520797e+03 2.325986879424279323e+03 2.248695219947405349e+03 2.213146498799488654e+03 2.187026992663988494e+03 2.191801149947314570e+03 2.216346231318510036e+03 2.279397058881370867e+03 2.325822891446721314e+03 2.400065293066211325e+03 2.467639997294226305e+03 2.533126759895777468e+03 2.644746616515047663e+03 2.699389589091508697e+03 2.762427465701238361e+03 2.768061318148489136e+03 2.754808830139764723e+03 2.717900638628260822e+03 2.693208506772097735e+03 2.676422476661583914e+03 2.687371860624675264e+03 2.707160231841961377e+03 2.744414981239372082e+03 2.768450353711315984e+03 2.813718615499236421e+03 2.856083809010695404e+03 2.894585512906970962e+03 2.965918369721050112e+03 2.994593269459000112e+03 3.014294540587369283e+03 2.987656616804079931e+03 2.951915720835846514e+03 2.868352986382199560e+03 2.820682208631743379e+03 2.752487303867431820e+03 2.717516625744709927e+03 2.700081659688717536e+03 2.673168445338955280e+03 2.656823996078492200e+03 2.605443189170220194e+03 2.544619921806225648e+03 2.488714976914112412e+03 2.382058838481116709e+03 2.323896675988692095e+03 2.239973137338716242e+03 2.189338188425410863e+03 2.149081983348599806e+03 2.099967780871744253e+03 2.084887875541939593e+03 2.089271145614457510e+03 2.137383171881435828e+03 2.195710949660142433e+03 2.312278280760561302e+03 2.382214032082547419e+03 2.484887780667414972e+03 2.539809380830530699e+03 2.573369942108821760e+03 2.619188425602639199e+03 2.649633197083889172e+03 2.713491746861501724e+03 2.786776044497589737e+03 2.847878181170161952e+03
2.213052351396843278e+03 2.260778818393906022e+03 2.336955663268079206e+03 2.374666230511874801e+03 2.431551436137186556e+03 2.464215952353984449e+03 2.486500658723423385e+03 2.511943235300018387e+03 2.526205717792199266e+03 2.556005661309929565e+03 2.589157382839118327e+03 2.614153620579328162e+03 2.660214100128252539e+03 2.690981970014687704e+03 2.742535477899346915e+03 2.789882464354249805e+03 2.829885236036347578e+03 2.893742222669390230e+03 2.937310814671479875e+03 3.002754168994391421e+03 3.068719578850086236e+03 3.122073865315795047e+03 3.209685686768411415e+03 3.249025552196845638e+03 3.275633502298115673e+03 3.251336787811176237e+03 3.207630714184815588e+03 3.117602705175759183e+03 3.053802607112511851e+03 2.948251089623482585e+03 2.852650459933578531e+03 2.776981128744407215e+03 2.638252903118137965e+03 2.560541044231126762e+03 2.452261692837488681e+03 2.373215348831225128e+03 2.317387715245972231e+03 2.241415183750476899e+03 2.207404645689521203e+03 2.183580084720611922e+03 2.194865632936706334e+03 2.223974236017507792e+03 2.288331671830369032e+03 2.337066946699885648e+03 2.413849400109124417e+03 2.489100995007795518e+03 2.555998224034186478e+03 2.667451429057414771e+03 2.728392568029018094e+03 2.786750719531943560e+03 2.783839450491812840e+03 2.756124987935725130e+03 2.692061262672760677e+03 2.658771415594414975e+03 2.633613255546943492e+03 2.650314636629653251e+03 2.678503667487365419e+03 2.743437032076306878e+03 2.784499298635503692e+03 2.847260250420546527e+03 2.900583177619735125e+03 2.944447148650269810e+03 3.016947563424545024e+03 3.049856108797034722e+03 3.067858930850051820e+03 3.041465728853310793e+03 3.003684302944675892e+03 2.917773744650620756e+03 2.862460940690152711e+03 2.790009630885288516e+03 2.755304634022800656e+03 2.740057295328520922e+03 2.710499152848419726e+03 2.692956801639661080e+03 2.641527670132186813e+03 2.578273860319506639e+03 2.523035992264748984e+03 2.415634307217046171e+03 2.356832747242626738e+03 2.267378187020689893e+03 2.208971415312056251e+03 2.164446890451120908e+03 2.105608480756533936e+03 2.082805334792580197e+03 2.080265249000160566e+03 2.123917368356261704e+03 2.185978931762000229e+03 2.301119417928818166e+03 2.379805787221855098e+03 2.483005224893506693e+03 2.544105630569382811e+03 2.585962969296636402e+03 2.652043464040549225e+03 2.686831553127876759e+03 2.758039098137160181e+03 2.828805018229185862e+03 2.891771723763902628e+03
2.196894781110028362e+03 2.245565261630104942e+03 2.329137630375762001e+03 2.378529061384764191e+03 2.442965939074711969e+03 2.476096779829326806e+03 2.498121386427514608e+03 2.524894659120602228e+03 2.541849332336227235e+03 2.570426573193215972e+03 2.594589395077866357e+03 2.608715159590779422e+03 2.638693592270317822e+03 2.658192310667661332e+03 2.698804832766179516e+03 2.747024114394716435e+03 2.788875456532714452e+03 2.870360831036653053e+03 2.915993238597185155e+03 2.993943774625342485e+03 3.061203861369725018e+03 3.117255843243204708e+03 3.209101902298632922e+03 3.251165103447777255e+03 3.279959483098406963e+03 3.254148136481207530e+03 3.212662925180281491e+03 3.120353620669915017e+03 3.053070081713045056e+03 2.948130195808608278e+03 2.855295148720711495e+03 2.780731674677114825e+03 2.647932281399247586e+03 2.571368682107787208e+03 2.466016577824089836e+03 2.390588972636970084e+03 2.336283067386365019e+03 2.257056891779666785e+03 2.223019654113909837e+03 2.193944147166107086e+03 2.197697695340813880e+03 2.216654779980266994e+03 2.271423764074586416e+03 2.317415032153449829e+03 2.387532672860332696e+03 2.458168119575530909e+03 2.523271427056944049e+03 2.634172505528093097e+03 2.693857188739936191e+03 2.755208696043243890e+03 2.753250442478452442e+03 2.731711414938410599e+03 2.673403478111197728e+03 2.640728395823008213e+03 2.625081670460889200e+03 2.647497606703076599e+03 2.680269216200877963e+03 2.756481706900467088e+03 2.803059361638237533e+03 2.870098048332087728e+03 2.930597949545305255e+03 2.974489727122934710e+03 3.049019309448416152e+03 3.083241750551502719e+03 3.108127104783620780e+03 3.084438628580427121e+03 3.046513677631246082e+03 2.963663093349205610e+03 2.910294068646892356e+03 2.838879759285092405e+03 2.800242574234709537e+03 2.782678639230003682e+03 2.743559413571281766e+03 2.720662935598184504e+03 2.667864419939269283e+03 2.605781022303018290e+03 2.545095492661419485e+03 2.445309007126209053e+03 2.384200046216461942e+03 2.301681102140571966e+03 2.243919336200195175e+03 2.198006928425515525e+03 2.135906476668253163e+03 2.115998316732228432e+03 2.114607589420814293e+03 2.155716803162724773e+03 2.210750223800307140e+03 2.330894981277142051e+03 2.404166641517057087e+03 2.510907925136742051e+03 2.577389885755690102e+03 2.619361378133438393e+03 2.692701421762633345e+03 2.733483235327805687e+03 2.804571454569669186e+03 2.877463924555634549e+03 2.940350741432139330e+03
2.199411907623660227e+03 2.250355761111276024e+03 2.334277898509148599e+03 2.388377966061291772e+03 2.458772527800495027e+03 2.497570973253409647e+03 2.521013618866654724e+03 2.554523262974654699e+03 2.568674767441135373e+03 2.592286963949714391e+03 2.600919292717876033e+03 2.602867207308175239e+03 2.600474127895424317e+03 2.608146283442159074e+03 2.634270743123016928e+03 2.683718444939587243e+03 2.733823969289263459e+03 2.825847251102560222e+03 2.884391636108909552e+03 2.972800194115002796e+03 3.051674651613379865e+03 3.113410008904780625e+03 3.217418582623075963e+03 3.268808734683933835e+03 3.301661393181706899e+03 3.277559303187583737e+03 3.230597437264494602e+03 3.132555404494505638e+03 3.059200794952904744e+03 2.951564374401306395e+03 2.860278217418181612e+03 2.792158070085802137e+03 2.667761938682911477e+03 2.595183449688240671e+03 2.494482906641982936e+03 2.416988764916778564e+03 2.363183722386464069e+03 2.283362164592084810e+03 2.245833112121310023e+03 2.209101397564488707e+03 2.204954159310716022e+03 2.212386313648310534e+03 2.245125407284373523e+03 2.272826098823807570e+03 2.328281408864500918e+03 2.395777333899622136e+03 2.458051691316800770e+03 2.567182938368561736e+03 2.628811987253824100e+03 2.691199923136883172e+03 2.702849467047600228e+03 2.690492154551978729e+03 2.654506293000802088e+03 2.631725448526146920e+03 2.630077968062055334e+03 2.662630200804690503e+03 2.701262785045547389e+03 2.778519894338561699e+03 2.824645016945315092e+03 2.898450504166923110e+03 2.957573759552141382e+03 3.009514908484040916e+03 3.088662897289499142e+03 3.122154386724025699e+03 3.151606745800188946e+03 3.133727673891690301e+03 3.101635567977828032e+03 3.025371981060971393e+03 2.979992587857792387e+03 2.906519652132506508e+03 2.861201995751282539e+03 2.831038435262784333e+03 2.780722781841392134e+03 2.751976070369706122e+03 2.684917217919437917e+03 2.623835543707898523e+03 2.569084904122918942e+03 2.473330512637531683e+03 2.418452041353176810e+03 2.345566673882165105e+03 2.287251533727983315e+03 2.246752937475221643e+03 2.190344559329454569e+03 2.173045764919335852e+03 2.171357973430449874e+03 2.211517537732649998e+03 2.267600033371276368e+03 2.381281310667758589e+03 2.453781249619020400e+03 2.556453127560097528e+03 2.620179364504537716e+03 2.666280106921352854e+03 2.746728542114764423e+03 2.791671984203639113e+03 2.864946689369920477e+03 2.936666809408200152e+03 2.999992609370268383e+03
2.205973709379039519e+03 2.254236316027422163e+03 2.344680894608383369e+03 2.398303265768093752e+03 2.473086526514036905e+03 2.511843891975106544e+03 2.540202377630520459e+03 2.573057015260244043e+03 2.592772793499178988e+03 2.608938305528547971e+03 2.611726701751282690e+03 2.595487638637913278e+03 2.575625234398561588e+03 2.569142679719774151e+03 2.588033285502975104e+03 2.635448922380135173e+03 2.685788563221766253e+03 2.788457128522218682e+03 2.851381232447227831e+03 2.952200541041832366e+03 3.042568876522144819e+03 3.114279615920479955e+03 3.226090332888832563e+03 3.281296317888484282e+03 3.322623641410208620e+03 3.298930111958502948e+03 3.248984915368710517e+03 3.143561158569488725e+03 3.067616185998642777e+03 2.954258655252868721e+03 2.868329162185294081e+03 2.802256285982891768e+03 2.688425473986271300e+03 2.620253210710147414e+03 2.521613774123899475e+03 2.446378373036827270e+03 2.392646647982656305e+03 2.310209302166797897e+03 2.271340056941461626e+03 2.228765770452378547e+03 2.210682720128834262e+03 2.209703107036141319e+03 2.222391061418897152e+03 2.235633582267716520e+03 2.278216949758246301e+03 2.338635177091722198e+03 2.395141624397083433e+03 2.503861120312307776e+03 2.563962013055950138e+03 2.633075855745385525e+03 2.653465965113651237e+03 2.650871221386305933e+03 2.632452378220215451e+03 2.629407438177824588e+03 2.641655062260613249e+03 2.676453143352119241e+03 2.717023265267619990e+03 2.792148590647183028e+03 2.843013904677157370e+03 2.916738281873485448e+03 2.980471500341888259e+03 3.032341980352858627e+03 3.112083119016803266e+03 3.151442645989528501e+03 3.184654873457353460e+03 3.174994634881537422e+03 3.144938943091566671e+03 3.077717097226589885e+03 3.032858055558671822e+03 2.963542687590056175e+03 2.912206257114740765e+03 2.875116561466579242e+03 2.809713847962062573e+03 2.771659282291794625e+03 2.702010889401446548e+03 2.636244863267697838e+03 2.586697913530716505e+03 2.497880962360858575e+03 2.448877652398221016e+03 2.376231298554840123e+03 2.325977061785043588e+03 2.292824701429338347e+03 2.238280034720560252e+03 2.220644748745340166e+03 2.225458217083713407e+03 2.265758003758465293e+03 2.315410545106829886e+03 2.426963438047158888e+03 2.493647071206450164e+03 2.594050713962415557e+03 2.662148840061679039e+03 2.708787987259068814e+03 2.786915929336570571e+03 2.833062490247594269e+03 2.915088847044290105e+03 2.981979753347698988e+03 3.045366285783718467e+03
2.222343239637002171e+03 2.274741541636296006e+03 2.362186379798430607e+03 2.418674024748923330e+03 2.491536792693862935e+03 2.534326160519272435e+03 2.563829503701388603e+03 2.598363686378802413e+03 2.615754750031051117e+03 2.629216616023206370e+03 2.613018065712276893e+03 2.588261189876408935e+03 2.543925851032973242e+03 2.523300783899183898e+03 2.526163151930687945e+03 2.576220990603000246e+03 2.629796888117602066e+03 2.741345761762005168e+03 2.816581157049312424e+03 2.930356502610757616e+03 3.024961119652649359e+03 3.110554870138386832e+03 3.240873380897689003e+03 3.302154421459642435e+03 3.352499032431026080e+03 3.324066334849283976e+03 3.276518908226816620e+03 3.158452249343215499e+03 3.079613734384919098e+03 2.961964884420287490e+03 2.879145812837908124e+03 2.818603396048255490e+03 2.715359117199988304e+03 2.652315727982660064e+03 2.561442224835786419e+03 2.491718490447981821e+03 2.437982586055245974e+03 2.358265215725080907e+03 2.315530066285795783e+03 2.259476653094058747e+03 2.228698455645944250e+03 2.213663467444386697e+03 2.198358098856625475e+03 2.197586189044106959e+03 2.219665455209749780e+03 2.268731447878186827e+03 2.320610722024077404e+03 2.418261378055906334e+03 2.475199733967546308e+03 2.550600677585803169e+03 2.585544665624607205e+03 2.598775372825689374e+03 2.611113797330182024e+03 2.620599155664612226e+03 2.653653728979424159e+03 2.696141182018281597e+03 2.739704077107687681e+03 2.813168582198538388e+03 2.861607475927949963e+03 2.940703072889767554e+03 3.002895811369814055e+03 3.061078953430479487e+03 3.145901462219120276e+03 3.192286927439165083e+03 3.225981331916048930e+03 3.220197043641381697e+03 3.198908523376916492e+03 3.142192969049125622e+03 3.100804615782007659e+03 3.028972381169302025e+03 2.978949532326249482e+03 2.930241611926736823e+03 2.850176407352284969e+03 2.804350353311142499e+03 2.721098010351600351e+03 2.660994405938955424e+03 2.610264503722410154e+03 2.529558938302076967e+03 2.489524698969256860e+03 2.424556270549034252e+03 2.381162113658261660e+03 2.349771170014012569e+03 2.308290754693578037e+03 2.293938187721810209e+03 2.300609730906567620e+03 2.339562859916070920e+03 2.389815736017359995e+03 2.485622293882252961e+03 2.549032580753298134e+03 2.646892029408235885e+03 2.716614607079430698e+03 2.763980080008730056e+03 2.847389619124168348e+03 2.898252549705347974e+03 2.975112074374135318e+03 3.045422236214091754e+03 3.103793872550862488e+03
2.257404074164286158e+03 2.302448784382231679e+03 2.387202969863435555e+03 2.437266592664721429e+03 2.503189244425094785e+03 2.545050148034498307e+03 2.571544814110360221e+03 2.605828502561421828e+03 2.619911093944488130e+03 2.631128669458120385e+03 2.612379159828005868e+03 2.577061724642388981e+03 2.520813582230854081e+03 2.495196463843141373e+03 2.491387829491166030e+03 2.540118951743545040e+03 2.594062974518939882e+03 2.708242456393836164e+03 2.784761480029451832e+03 2.904702565642617174e+03 3.006430116008069035e+03 3.094471551510701829e+03 3.236706277429705096e+03 3.306408679592999761e+03 3.364662650015975487e+03 3.335959372223967875e+03 3.285830859589753345e+03 3.164012641467266803e+03 3.083150697243765080e+03 2.969454167153285653e+03 2.896000669268496949e+03 2.841933277384865505e+03 2.751321872941616220e+03 2.700239330917511779e+03 2.619509170844467917e+03 2.553268048699074370e+03 2.501083808349987976e+03 2.426853944081521604e+03 2.381675133363004534e+03 2.317898074480321156e+03 2.274154957475687297e+03 2.242276154799317737e+03 2.200956871885893179e+03 2.189769239934732468e+03 2.186128526992701154e+03 2.219759073225859993e+03 2.261215605704577229e+03 2.342078856067515972e+03 2.396899811731477712e+03 2.472235670380691317e+03 2.512932374471238745e+03 2.535128838980185719e+03 2.577974860949251251e+03 2.601364654897654873e+03 2.654160170299960555e+03 2.709719677027014313e+03 2.749012894783031697e+03 2.831387700820473583e+03 2.878605300540948974e+03 2.956059674946531686e+03 3.027350463529384342e+03 3.086442925640998965e+03 3.183611938582706898e+03 3.231736998862681958e+03 3.274500693250859058e+03 3.273884422869701666e+03 3.256912653594500171e+03 3.203308093316255054e+03 3.163053892063343483e+03 3.095037314986697766e+03 3.037284742620921861e+03 2.986274746336736825e+03 2.897276294817891994e+03 2.843656958892449893e+03 2.760850085969622796e+03 2.698950221302325645e+03 2.652781404740550443e+03 2.579458269729758285e+03 2.541457288299139691e+03 2.486647875885254962e+03 2.445712855826157920e+03 2.420539556277021802e+03 2.381841641141350919e+03 2.370946543104948887e+03 2.378190218681664192e+03 2.416171628188305021e+03 2.460920612738616001e+03 2.554693069776183165e+03 2.613136449437855390e+03 2.706444408905315868e+03 2.776484851282678392e+03 2.830809822497709774e+03 2.913708816872149782e+03 2.965068940343312079e+03 3.043766532748631562e+03 3.106085547401301483e+03 3.157074812434528667e+03
2.296817798470858634e+03 2.335662276328221651e+03 2.404366421667779377e+03 2.446243143981163030e+03 2.504434257161068672e+03 2.534431230430100186e+03 2.556026946048846185e+03 2.586084090239264697e+03 2.598457779013665913e+03 2.606037042145974283e+03 2.593600733351630879e+03 2.570965240182351863e+03 2.524719005599496541e+03 2.509170780479272707e+03 2.514067523419325880e+03 2.556744137365892584e+03 2.604774349726615583e+03 2.707713143470601153e+03 2.774120373144914083e+03 2.885439364883989583e+03 2.984107648555944252e+03 3.070933103553145884e+03 3.215757231359678372e+03 3.285507120091623165e+03 3.345232831030082707e+03 3.323271280564467361e+03 3.273159942697068345e+03 3.160029862436987969e+03 3.082286084735381337e+03 2.976560342184046476e+03 2.912519478816486298e+03 2.865760447974742874e+03 2.789208425625683503e+03 2.747301537752608965e+03 2.670350761776444415e+03 2.610532704058585296e+03 2.568728893151688681e+03 2.495103352433826331e+03 2.453812967749679501e+03 2.388845060937645485e+03 2.337634048713150150e+03 2.303269835334442178e+03 2.246259660900017934e+03 2.218254728726156372e+03 2.203959853049480898e+03 2.221314013998815881e+03 2.249632876372589635e+03 2.309449977958214276e+03 2.353561052716257564e+03 2.418213661606294409e+03 2.457548472596948613e+03 2.490125118151370316e+03 2.542752901523798755e+03 2.575547739777734932e+03 2.636507559322111319e+03 2.696955008937561615e+03 2.741214325741260382e+03 2.822562567331355240e+03 2.874033850212835659e+03 2.957953618900995025e+03 3.033230465133954567e+03 3.097628095997689798e+03 3.203292481044877604e+03 3.253637922234533107e+03 3.302701327524809585e+03 3.303481977162887233e+03 3.285835888600616727e+03 3.234985424729556144e+03 3.197398387500768422e+03 3.130324999754691817e+03 3.076008500895481575e+03 3.027608707964707264e+03 2.939916818686845090e+03 2.887668554213947118e+03 2.804100178687964672e+03 2.744703033578999111e+03 2.699507102834671969e+03 2.627404178662925915e+03 2.592657714332006890e+03 2.533837290180734271e+03 2.495414855588847786e+03 2.470149036632636125e+03 2.429091148676259763e+03 2.418705333474697909e+03 2.428091067895305059e+03 2.462090017002808054e+03 2.505629400595531479e+03 2.599825685000528665e+03 2.655482774242866526e+03 2.748477125578318010e+03 2.816240386367773226e+03 2.871232517021642707e+03 2.960754472544047076e+03 3.015117806039912011e+03 3.085272221319941309e+03 3.137913416224342654e+03 3.180048774756171952e+03
2.348120658228801403e+03 2.373339036901730651e+03 2.426096266189033031e+03 2.452126260479390567e+03 2.492194318219508204e+03 2.513814675176119636e+03 2.528926371228584685e+03 2.544870113723055056e+03 2.549935111568710909e+03 2.561008749108100801e+03 2.558060861766659400e+03 2.554464979493384817e+03 2.544737011252588218e+03 2.539957065861853152e+03 2.559480597430017042e+03 2.597390002871725301e+03 2.635804622858562198e+03 2.714782280416534377e+03 2.767860861712008045e+03 2.861337107042165826e+03 2.952044046387758044e+03 3.039297478375809533e+03 3.180833784001394633e+03 3.253632802818118762e+03 3.313097261142398565e+03 3.293786707141555326e+03 3.250983318559535746e+03 3.142671021169206142e+03 3.073206374837800468e+03 2.981030774056931023e+03 2.928081673167049303e+03 2.887161302158472154e+03 2.832577841347922458e+03 2.798512831222170917e+03 2.739707706848197176e+03 2.690284562287634799e+03 2.649847037528606052e+03 2.581763830824756951e+03 2.543917214611855798e+03 2.482719761548837141e+03 2.428947072423322879e+03 2.384171088261899058e+03 2.311407517101818485e+03 2.281239156648463450e+03 2.246035288823379233e+03 2.244980812327678905e+03 2.256368922315158215e+03 2.287805238544510303e+03 2.314516910890145027e+03 2.361485316033677009e+03 2.402597877920780320e+03 2.432172514876449895e+03 2.494585922444724019e+03 2.534707737730328972e+03 2.610822818838614694e+03 2.671753813769074895e+03 2.719435334500651152e+03 2.806359692671599987e+03 2.861760392999855867e+03 2.949714305055204477e+03 3.035882804153001871e+03 3.103063275975519446e+03 3.214897015954845301e+03 3.274042284477051908e+03 3.327483295372398516e+03 3.329358698864697999e+03 3.315352824112229882e+03 3.257796751856620176e+03 3.219101351498823078e+03 3.154977890967530584e+03 3.105677803557334300e+03 3.058952872963636764e+03 2.982539987273333736e+03 2.933795474892962829e+03 2.861761071731782067e+03 2.804268096726629665e+03 2.760998967098105823e+03 2.687860092108334811e+03 2.645833602124864228e+03 2.587944579973269811e+03 2.546952494317788023e+03 2.516673044546503661e+03 2.475073187465232422e+03 2.464732544057916584e+03 2.465309320477338133e+03 2.503550250458272785e+03 2.544901282277362498e+03 2.635586793057980231e+03 2.694455815826851904e+03 2.787897216698479497e+03 2.855039252700335055e+03 2.911436311283290706e+03 3.005843792342524011e+03 3.060929948825857537e+03 3.125589511601174763e+03 3.164032192939853303e+03 3.193466647767648737e+03
2.391144418050375862e+03 2.407326604956603205e+03 2.439189899081113708e+03 2.462198755633839482e+03 2.488408319635768294e+03 2.494454397898425668e+03 2.500815663987354583e+03 2.507821847707675261e+03 2.508376567720436469e+03 2.521995544504160989e+03 2.533381226506832718e+03 2.540601673478020530e+03 2.561318911992359062e+03 2.575544123228293756e+03 2.607558739483533373e+03 2.644630405976137354e+03 2.672093646234111475e+03 2.727189811320230547e+03 2.769605216379894500e+03 2.845291002703666891e+03 2.931070061946113583e+03 3.015741086067204833e+03 3.152741633136705332e+03 3.220946205690556781e+03 3.286373349187150325e+03 3.270667364002728391e+03 3.228154027729494828e+03 3.130801003334520374e+03 3.067380203080323554e+03 2.985977982407647232e+03 2.940639829011630354e+03 2.910915385680230429e+03 2.865325658980334538e+03 2.838447047149860282e+03 2.788851141017437840e+03 2.745140736988443678e+03 2.711772086832417244e+03 2.654682610772359112e+03 2.614913566786704450e+03 2.554262564447893965e+03 2.495445808236238918e+03 2.449633232322561071e+03 2.372897547488568307e+03 2.331710733471839831e+03 2.289428575483386339e+03 2.271670347198385116e+03 2.268568556642464955e+03 2.279451139780058838e+03 2.293300763266983722e+03 2.325164852736516423e+03 2.360666808141226284e+03 2.394499376862080226e+03 2.465526804650296526e+03 2.508772523730119246e+03 2.585755080938774881e+03 2.649519597825867550e+03 2.699375389878461647e+03 2.792884322847668955e+03 2.846262579661492509e+03 2.944017087528554839e+03 3.029061636703233944e+03 3.103648868266885074e+03 3.223003781623347095e+03 3.284501519508717593e+03 3.346997600509956101e+03 3.347676520878893371e+03 3.327056366048054770e+03 3.272283949589647364e+03 3.233031946474573033e+03 3.165897467569905530e+03 3.118284494575243571e+03 3.084541936007326967e+03 3.015191536790775899e+03 2.972767256954216919e+03 2.906169818256874805e+03 2.845506056099385660e+03 2.805153506461233519e+03 2.731004156787162628e+03 2.687446958320146223e+03 2.632789838421101649e+03 2.585943941769292906e+03 2.557176217390354850e+03 2.512445813052603171e+03 2.495577408338685018e+03 2.496542265748650152e+03 2.528878392169289782e+03 2.574366963727717120e+03 2.661528712981963054e+03 2.722858186003652918e+03 2.816661023096388362e+03 2.883195443177692596e+03 2.942293184666304114e+03 3.037877997762304858e+03 3.089217248645092241e+03 3.149949140661229194e+03 3.182013584941008503e+03 3.194770898697056964e+03
2.453685516203110637e+03 2.454573036533902268e+03 2.467941566814361977e+03 2.472390762907684348e+03 2.478444538698136512e+03 2.474569312214656293e+03 2.471959557513420350e+03 2.465004995487292035e+03 2.463956398455708495e+03 2.478371264266548224e+03 2.501360682039577569e+03 2.533324245765667911e+03 2.590611157913194347e+03 2.623894011593363302e+03 2.672746212123903661e+03 2.705340261918666329e+03 2.724387326731350186e+03 2.750347997554406447e+03 2.774409386288734822e+03 2.832199643229123467e+03 2.908404715461193064e+03 2.988217421327127340e+03 3.121093349332895741e+03 3.188485927309642648e+03 3.249273926212556034e+03 3.240274805433086840e+03 3.206073537692687296e+03 3.121942343397528930e+03 3.065397990619170287e+03 2.991058295960628129e+03 2.956589328090859453e+03 2.937358143978839962e+03 2.909551493229505922e+03 2.888284906693287667e+03 2.852111095090248000e+03 2.816495104077255746e+03 2.784892077747862913e+03 2.734915487702165137e+03 2.705770183688343877e+03 2.646660187502784083e+03 2.585291459957963525e+03 2.537950368136815086e+03 2.453270589733293036e+03 2.406516570003102515e+03 2.346146659927197561e+03 2.314221560339606185e+03 2.299207360078760303e+03 2.281154091084939864e+03 2.278695800131431042e+03 2.291437176812413327e+03 2.325004612857640950e+03 2.357296293809394683e+03 2.432405831957867122e+03 2.477337106822226815e+03 2.563062270371997329e+03 2.630255053835464423e+03 2.683038155787645792e+03 2.777167824384010601e+03 2.837941634144393902e+03 2.933958590956227908e+03 3.028483904430338043e+03 3.105478122338525736e+03 3.237074227333258932e+03 3.301886820231735328e+03 3.364003108751892341e+03 3.368947015100729004e+03 3.344921216065271892e+03 3.284277825433056933e+03 3.239517764570932741e+03 3.176894273245959539e+03 3.133536022922770371e+03 3.105628029963929293e+03 3.046953298136010289e+03 3.014741731539901139e+03 2.955290427615772387e+03 2.904086874844325848e+03 2.858305483968895260e+03 2.785232229982971148e+03 2.741294460238157171e+03 2.685451480011311560e+03 2.637942172700918036e+03 2.601126814885272779e+03 2.553920798382411249e+03 2.537268426393400205e+03 2.533081614515940601e+03 2.567079071862465753e+03 2.610244064219403299e+03 2.702574109258865064e+03 2.760486746195671913e+03 2.853036041996831500e+03 2.921994363510582843e+03 2.980288239798980612e+03 3.078687383548373418e+03 3.130214968525962831e+03 3.185277192179049052e+03 3.199120153255827972e+03 3.200248683681973034e+03
2.522544920841661224e+03 2.516305254409222016e+03 2.505241109602159668e+03 2.495240872348873836e+03 2.482128393723867248e+03 2.472263036753554388e+03 2.457824107924277087e+03 2.436158679328016660e+03 2.435309254348489958e+03 2.450965775361816213e+03 2.490049310801413867e+03 2.536422251031667201e+03 2.619655014342124559e+03 2.672171003455365735e+03 2.738591149976486577e+03 2.766882374417494248e+03 2.780022742970837498e+03 2.790740758268031186e+03 2.803080033359457957e+03 2.841252100185524796e+03 2.913143774137163291e+03 2.982322078199522366e+03 3.105708481150663374e+03 3.171187894966297790e+03 3.233772339043504871e+03 3.226129962516908563e+03 3.195057670050643537e+03 3.121256811850164922e+03 3.076100427726846192e+03 3.014865833605137141e+03 2.984939852411903303e+03 2.967502664671927050e+03 2.944565354483208012e+03 2.928266253755703929e+03 2.898966071930515682e+03 2.870988118940306776e+03 2.847851108405262494e+03 2.807046524476166269e+03 2.777262380743635276e+03 2.723422627246210595e+03 2.668552622331806106e+03 2.617605640361895894e+03 2.534312229728101102e+03 2.485382120591222701e+03 2.418335318965164788e+03 2.373535317813703386e+03 2.343396182921772379e+03 2.304339529751915052e+03 2.288079999540754216e+03 2.291908504112586343e+03 2.317461946325100143e+03 2.349419782951973048e+03 2.428027175819453532e+03 2.478685415542428473e+03 2.561811046519357660e+03 2.630400205091608314e+03 2.681195060028239823e+03 2.778501356464176752e+03 2.836376751315642650e+03 2.939154282130263709e+03 3.035407700693175684e+03 3.114456660485055636e+03 3.250052663601997665e+03 3.318685140080143356e+03 3.388950665825458600e+03 3.388076970966750650e+03 3.360885139426078240e+03 3.290892307333716417e+03 3.239928490940323172e+03 3.175700104819479748e+03 3.138514420611191781e+03 3.111941225804927399e+03 3.068052078395051922e+03 3.041099604765131971e+03 2.993099127005031733e+03 2.943845651757576888e+03 2.904519936116162626e+03 2.839000137093786634e+03 2.799902386116869366e+03 2.742648796430798484e+03 2.695428029739724479e+03 2.662070068633850951e+03 2.612188321069946142e+03 2.595720928374389587e+03 2.591062382035299379e+03 2.628598807102390765e+03 2.669607414174457062e+03 2.757600414887787792e+03 2.817486661531013851e+03 2.905153774938415609e+03 2.974553193458194528e+03 3.031109993906468389e+03 3.125186594833453455e+03 3.166737150691412808e+03 3.212711073152963763e+03 3.219145144119002907e+03 3.203081921029146088e+03
2.583889798961348788e+03 2.570913809537616544e+03 2.546734014357820342e+03 2.532436706299602520e+03 2.509418934010658177e+03 2.491879154393266617e+03 2.475965750666485292e+03 2.453286369156193814e+03 2.447799290053028926e+03 2.461601610389664074e+03 2.505962199360226350e+03 2.554937501811171842e+03 2.651026821086516975e+03 2.705653801601587929e+03 2.782118346705652584e+03 2.810151434394922489e+03 2.819032545384449804e+03 2.833589105077321619e+03 2.842087469202573629e+03 2.885850730846887473e+03 2.951782114745267336e+03 3.017544860377766781e+03 3.134388578822418822e+03 3.191976949377454730e+03 3.250124665877288862e+03 3.243414302940523612e+03 3.219277764958299485e+03 3.148924340019319061e+03 3.100150285216182965e+03 3.041626813938489249e+03 3.012698226876393619e+03 2.989836245693126784e+03 2.958311259147440524e+03 2.939123440469974412e+03 2.905664075358442005e+03 2.881061939958039602e+03 2.858063410086860131e+03 2.827076553903859804e+03 2.801797903536134527e+03 2.756458379152209091e+03 2.704198364924979160e+03 2.660700147654561988e+03 2.582893410517621305e+03 2.540316882049014566e+03 2.474697252070686773e+03 2.434193238822714193e+03 2.403856663644829041e+03 2.360340585986900351e+03 2.345268481160734609e+03 2.341164842149593369e+03 2.365843801347547469e+03 2.397116013569460392e+03 2.466624229847735933e+03 2.513115027916188865e+03 2.595270958764612260e+03 2.659488763926304273e+03 2.709827243416787496e+03 2.795824438080444452e+03 2.853834036871311127e+03 2.954705264909877769e+03 3.048211467128839558e+03 3.134583991723408872e+03 3.270142156141074793e+03 3.340772941567927319e+03 3.405894204613750389e+03 3.401294478228465778e+03 3.366568551483573174e+03 3.283373747120550888e+03 3.227152793389352155e+03 3.152109455133003394e+03 3.119264228379095130e+03 3.093109216629270122e+03 3.057333896591826488e+03 3.034895113516919992e+03 2.990499696645395488e+03 2.948185491910657220e+03 2.916784988458856333e+03 2.860483342794909277e+03 2.828123626708948450e+03 2.781014989562459050e+03 2.738406021870167024e+03 2.708036918152866747e+03 2.664875499293178109e+03 2.648495968016748066e+03 2.647620354549323110e+03 2.682556829143811228e+03 2.721619913348035425e+03 2.810980053476554986e+03 2.863225534764851091e+03 2.951672266291950109e+03 3.016664991804076180e+03 3.069304264026195142e+03 3.151942951064484532e+03 3.193910332663032932e+03 3.229537157561926506e+03 3.226145163321357359e+03 3.208908771617888306e+03
2.656021854688183794e+03 2.635161822499425853e+03 2.603250450969948815e+03 2.577170805683887920e+03 2.550968629884382153e+03 2.531378225768538414e+03 2.513507804626290181e+03 2.488572546044517367e+03 2.478674199585755105e+03 2.495266887432676413e+03 2.536798420949634874e+03 2.589378389664431779e+03 2.684052105884258253e+03 2.741903038954349540e+03 2.817080657164699460e+03 2.851246209198176985e+03 2.869286477955365626e+03 2.889027754419231314e+03 2.904446148125780383e+03 2.950410826363041906e+03 3.010130806540956655e+03 3.074516583488813922e+03 3.184262455173065064e+03 3.238136757559053422e+03 3.291189785765468514e+03 3.283293819799858284e+03 3.254636948023768127e+03 3.189017924382931596e+03 3.144915708818879921e+03 3.080715161933465879e+03 3.041967779807052011e+03 3.014592960087935353e+03 2.966034641815553186e+03 2.939713128871743265e+03 2.895806128387569515e+03 2.868321308863320155e+03 2.852397669932011468e+03 2.828379324584540427e+03 2.807246442631319951e+03 2.775115391788826855e+03 2.733024340658549136e+03 2.694274971475686471e+03 2.634528898472978199e+03 2.595190099504414320e+03 2.546704352193607065e+03 2.509897633269613834e+03 2.481453970223696615e+03 2.447253641561883342e+03 2.429647028530451735e+03 2.429750355209762347e+03 2.451318592643343436e+03 2.478833136828794522e+03 2.538387956700802079e+03 2.580022352775838044e+03 2.649176172915171264e+03 2.704401160969631746e+03 2.751029926825692201e+03 2.829062164635670797e+03 2.882136118074751721e+03 2.975361251759840798e+03 3.070577479989890435e+03 3.152535581061564244e+03 3.291135291112333562e+03 3.359918394617221111e+03 3.422267104614611526e+03 3.407734330761225920e+03 3.362342848211400906e+03 3.266873860965605218e+03 3.200233050503780305e+03 3.117356329431612721e+03 3.079063905378782692e+03 3.053832192195192420e+03 3.018296399825717799e+03 3.004890015202765881e+03 2.969780973330253346e+03 2.935020257959095034e+03 2.912422487198811723e+03 2.867612140914061456e+03 2.843152864003154264e+03 2.806584002573458747e+03 2.778217639354969378e+03 2.757746321843337682e+03 2.718298780220589833e+03 2.706244698599986350e+03 2.712001502198449998e+03 2.747860628132062629e+03 2.785191594087182239e+03 2.867140011322090231e+03 2.917692927067856544e+03 2.996428844792340442e+03 3.053058977777775453e+03 3.101548818689679138e+03 3.174174289033936930e+03 3.211269217535482767e+03 3.240195003396188895e+03 3.234351019512432686e+03 3.213817626115739131e+03
2.702729838184229266e+03 2.686823743965232097e+03 2.641417990864723834e+03 2.619518129292873709e+03 2.582655713104227289e+03 2.559860109432231184e+03 2.543904442323433614e+03 2.521633365619979486e+03 2.514262121336636483e+03 2.527961512572134779e+03 2.570481984556756288e+03 2.618505651513548855e+03 2.710255149930364041e+03 2.764338393405449096e+03 2.843518154519816562e+03 2.885208495150334784e+03 2.906321918501136679e+03 2.935645503278050001e+03 2.955870300223067716e+03 3.006924033658196095e+03 3.069452843780675721e+03 3.127837129718691358e+03 3.227779506693202165e+03 3.278574635050613324e+03 3.323265569424691421e+03 3.312982932023531248e+03 3.288024398779312378e+03 3.226626658689390297e+03 3.182764286303066456e+03 3.115572582534909088e+03 3.067616525345616992e+03 3.026665472060342381e+03 2.963263107458792092e+03 2.928046823687040160e+03 2.879864112840820326e+03 2.851516555752184104e+03 2.836870951659331240e+03 2.814495349192882259e+03 2.802004313334977269e+03 2.776213240896132902e+03 2.740484710197268669e+03 2.713637418351223459e+03 2.664198072215539923e+03 2.635732066708127604e+03 2.592249116704491826e+03 2.567170206523518118e+03 2.544241449409533743e+03 2.515490162806353510e+03 2.505903370103839279e+03 2.508483383098852300e+03 2.525246646048544790e+03 2.546579563839818547e+03 2.599304000092700790e+03 2.632102899346150934e+03 2.694481239660527990e+03 2.746898899985568733e+03 2.787675208936646413e+03 2.860179771299735421e+03 2.908829780231235418e+03 2.998674406386017381e+03 3.086788751227596549e+03 3.171163632540070466e+03 3.307736982460821764e+03 3.376807606046042565e+03 3.431862425890731174e+03 3.409408192750952367e+03 3.362725280086191106e+03 3.246451184077931430e+03 3.178109959463592986e+03 3.085390292472652163e+03 3.045701418471164288e+03 3.021035295448533816e+03 2.987731539172374141e+03 2.972777737126733882e+03 2.942583172906382515e+03 2.916327090848673379e+03 2.900438849769302124e+03 2.872801504911431948e+03 2.854465381968740985e+03 2.830806423826852551e+03 2.807062451714717099e+03 2.786694179382535367e+03 2.759183241778832326e+03 2.751329944982296638e+03 2.763034611464472619e+03 2.796547041803366938e+03 2.831626366093580145e+03 2.910404690877319354e+03 2.962488870031231727e+03 3.034921485130263591e+03 3.085870059220307212e+03 3.127996409819028486e+03 3.190160951416694388e+03 3.220320169922878904e+03 3.246229413442596524e+03 3.237052245139155275e+03 3.219233229505732652e+03
2.766943493852974370e+03 2.747156992734120195e+03 2.696243537981675217e+03 2.665443415365652982e+03 2.628930370364201281e+03 2.607906084361142348e+03 2.589586666439417968e+03 2.570714032624638094e+03 2.563484346760889366e+03 2.578700392826755888e+03 2.615552039161135781e+03 2.661000994164261101e+03 2.742783759645944883e+03 2.797516873713369932e+03 2.872618066096241364e+03 2.920452629446742321e+03 2.950075901768871063e+03 2.997904908610134498e+03 3.031430734993720762e+03 3.086989373177814286e+03 3.150933757153513852e+03 3.203494349160054298e+03 3.293228554166502363e+03 3.335401871471778577e+03 3.377432806508998056e+03 3.366358754869738732e+03 3.339229130003416230e+03 3.273211282205245880e+03 3.227568004211845619e+03 3.154979413255606687e+03 3.096516887660373413e+03 3.042407042828722751e+03 2.958291700910732288e+03 2.911000781165802437e+03 2.841579676149237457e+03 2.813056738678072634e+03 2.800420364564955435e+03 2.784195593390085833e+03 2.779045512866797253e+03 2.761603431878113952e+03 2.741922244754415260e+03 2.720529860841756999e+03 2.692980125170442079e+03 2.674839275729783367e+03 2.654368576481359469e+03 2.643127757337344974e+03 2.634401435694503562e+03 2.621529970477693496e+03 2.619566957866271878e+03 2.628250281388358417e+03 2.645123665279825218e+03 2.665680433222280953e+03 2.702539554001654778e+03 2.727181404115156965e+03 2.776463299362955695e+03 2.818716606000766205e+03 2.854640249998207310e+03 2.916842411541654656e+03 2.957055254987965327e+03 3.036703672079763692e+03 3.121014507465808492e+03 3.199764273130122547e+03 3.333617493974512399e+03 3.400838821069981350e+03 3.448208691955733684e+03 3.414799134733169467e+03 3.356850855275915364e+03 3.222650827025913259e+03 3.145081220154724633e+03 3.041558481981624936e+03 2.997614950844684245e+03 2.972384804501356939e+03 2.940974867260330029e+03 2.928850575214783021e+03 2.907977187583328032e+03 2.895502339931209917e+03 2.888584463162938846e+03 2.879195741269756581e+03 2.873457111844282281e+03 2.864189029869268779e+03 2.855284512057080974e+03 2.842535725731107050e+03 2.831603958154661086e+03 2.827446073039523981e+03 2.839766529430412447e+03 2.878281439167648387e+03 2.912551828418296282e+03 2.988752482067136498e+03 3.035446815169110323e+03 3.100911026450595728e+03 3.141114590559524459e+03 3.169438173041507980e+03 3.215682942449098846e+03 3.234199646796424076e+03 3.249350252887918487e+03 3.238827524305911084e+03 3.217016367546325910e+03
2.780387848083966219e+03 2.760919163459638185e+03 2.715993437629182154e+03 2.681717945333475654e+03 2.644135240149343645e+03 2.628387457249041745e+03 2.613465623106019393e+03 2.594791935730104797e+03 2.591849265060424386e+03 2.601128477375383227e+03 2.637377311640150765e+03 2.678909551958939574e+03 2.754125012880119357e+03 2.799892124930171121e+03 2.873173142251152058e+03 2.928762746605823395e+03 2.964671796000672657e+03 3.026147522993463554e+03 3.058939159278037550e+03 3.123175917158831908e+03 3.186098557410090962e+03 3.238479360977238230e+03 3.326731294553033422e+03 3.364788000771083261e+03 3.397060932107439839e+03 3.386609013589721599e+03 3.360863571156259695e+03 3.293139732149992142e+03 3.246294223169200450e+03 3.170792213387281208e+03 3.101870739589211098e+03 3.043203454200526267e+03 2.941255653350336615e+03 2.888341473971704090e+03 2.813208920677285278e+03 2.779047680871123703e+03 2.766336140182609142e+03 2.753201580498630847e+03 2.746252740139403613e+03 2.730420522243957748e+03 2.714871340145155500e+03 2.702327927704937338e+03 2.684717098366824757e+03 2.673260825195621692e+03 2.663335453592183512e+03 2.664799188234107078e+03 2.664458515192601681e+03 2.669569362243567866e+03 2.675388836566137797e+03 2.690757063587882385e+03 2.711693848192033784e+03 2.729135916803398686e+03 2.767293860022905847e+03 2.793204542176190444e+03 2.838567012374393471e+03 2.873031478846753998e+03 2.900107586212847309e+03 2.954472015910237133e+03 2.994892005064992645e+03 3.060247247638596946e+03 3.143523617455081876e+03 3.219960572099944329e+03 3.351010460236755080e+03 3.413987245360507131e+03 3.459877825719907833e+03 3.419116505937271086e+03 3.354307189938092961e+03 3.217364853467627199e+03 3.131962582344875955e+03 3.024727254092865678e+03 2.978850298104329795e+03 2.956316803812695071e+03 2.931397739384249235e+03 2.919672743449291829e+03 2.902158711977751409e+03 2.893437483565622642e+03 2.893694432890220469e+03 2.896938908174510289e+03 2.895367679597878123e+03 2.897529962898945087e+03 2.896519338766831424e+03 2.889404449723737343e+03 2.884731363525816050e+03 2.882686750243965889e+03 2.903581782300404939e+03 2.939830169461002697e+03 2.978791694447270402e+03 3.055880559443865877e+03 3.099611521562365397e+03 3.157843110187126513e+03 3.188395293220300573e+03 3.211541769913463213e+03 3.240350904993914810e+03 3.253324386446233348e+03 3.252547198182520333e+03 3.240180515178945825e+03 3.215040066604164167e+03
2.768995265171242409e+03 2.748191462191266510e+03 2.705937692934360257e+03 2.679045487372021853e+03 2.644376298153228163e+03 2.627501454009735426e+03 2.612739986631403553e+03 2.599929881512684915e+03 2.596140328446949752e+03 2.608346090515871310e+03 2.642259268315275676e+03 2.677619735168728766e+03 2.744231106293440462e+03 2.789703324291431272e+03 2.860665083227315336e+03 2.915194063665442172e+03 2.955067769056072393e+03 3.021138399458227013e+03 3.062039705276751192e+03 3.129504747410306663e+03 3.190860721687202386e+03 3.242553116931929253e+03 3.327099981456638488e+03 3.368366703146382861e+03 3.400993462707242088e+03 3.390692314114306100e+03 3.361419856522712507e+03 3.290161321497021163e+03 3.240242382155082396e+03 3.161472295190016212e+03 3.091424969024714301e+03 3.031457490355117898e+03 2.925825894519559824e+03 2.867425684381405972e+03 2.791883896234315216e+03 2.756597074655213873e+03 2.734444620764675165e+03 2.716739265062564755e+03 2.712694569706349284e+03 2.693345405763785038e+03 2.681356155971016051e+03 2.670526451935418663e+03 2.653000986274811567e+03 2.643381902557564445e+03 2.641535249150382697e+03 2.647042296500376324e+03 2.657746637553600067e+03 2.674100557843475599e+03 2.687259553115123254e+03 2.716073490188591222e+03 2.742507289286517789e+03 2.761016993839212319e+03 2.803012730279445350e+03 2.829155033597030524e+03 2.875327592194261797e+03 2.911412624805465384e+03 2.939309547728884809e+03 2.988183066366966159e+03 3.017321106784771473e+03 3.085466695721960605e+03 3.160733891917454912e+03 3.236723882993574080e+03 3.365826100532613509e+03 3.425882129042167890e+03 3.464113851220465676e+03 3.424649006675615510e+03 3.357960311398454905e+03 3.220110335209365076e+03 3.131345629346333681e+03 3.027335822652482420e+03 2.983011776813536926e+03 2.959826744813906771e+03 2.939245085073976043e+03 2.929722839375353942e+03 2.917088935930521984e+03 2.914901416023101319e+03 2.914508654598324483e+03 2.917526950409845540e+03 2.921347256634292535e+03 2.931006258112470277e+03 2.929770621771569495e+03 2.927832494208047137e+03 2.924733243086479888e+03 2.925585671348831511e+03 2.949157646992190621e+03 2.987143645902576282e+03 3.028954307444743790e+03 3.110099297930488774e+03 3.151938727368365107e+03 3.207430206062580964e+03 3.235832904999363109e+03 3.254455497044401909e+03 3.270675903567867863e+03 3.269637565280414492e+03 3.262704662768445814e+03 3.241880717819723031e+03 3.211886772599929373e+03
2.703716635146962290e+03 2.690688449872086494e+03 2.658109738201980690e+03 2.639083445660250618e+03 2.623833547214924693e+03 2.613900853460688722e+03 2.604271338689794902e+03 2.598712505455715927e+03 2.600312750979719567e+03 2.612299461821462501e+03 2.636965661779399852e+03 2.662642494759443252e+03 2.715359506837165100e+03 2.749482810941481603e+03 2.809776450747910985e+03 2.861537112357323622e+03 2.906172365452282520e+03 2.981675379803259602e+03 3.025731690969293595e+03 3.100399480816035521e+03 3.165646673917913176e+03 3.220101493961531105e+03 3.309107850241859524e+03 3.352597110831245573e+03 3.386473163249527715e+03 3.370522630737779764e+03 3.336488898964761574e+03 3.260797413153694379e+03 3.203337026922793029e+03 3.118958657583344575e+03 3.047438108021989137e+03 2.982290313347799838e+03 2.880909653508376323e+03 2.823406682827604527e+03 2.739103663697085722e+03 2.694535873346767858e+03 2.669621212961536457e+03 2.638538357064311640e+03 2.621924620663118731e+03 2.601911795539304421e+03 2.583944752805041389e+03 2.568113318222707221e+03 2.554057047785484883e+03 2.550253763543772948e+03 2.554147199301264209e+03 2.573766462523470636e+03 2.598569476963301440e+03 2.643125947140804328e+03 2.675478180054426502e+03 2.727751453842335650e+03 2.769443045872724724e+03 2.807643008896725405e+03 2.862179556352118198e+03 2.898788431636772202e+03 2.950373141394447430e+03 2.989403598452866390e+03 3.010010328350886994e+03 3.046522354945740517e+03 3.072255637870667215e+03 3.126682315739206388e+03 3.199073488885619554e+03 3.265643089831045017e+03 3.383749776398848098e+03 3.440379872718291153e+03 3.476094449803789757e+03 3.433464713268147079e+03 3.370651495691233777e+03 3.230053011260382391e+03 3.148471047235966125e+03 3.047608569707717834e+03 3.006079105918003279e+03 2.985236540227558635e+03 2.968481915313086120e+03 2.966997068717550064e+03 2.960936007398272068e+03 2.957728196647769437e+03 2.957005091218245980e+03 2.967029787328868679e+03 2.973100660512483500e+03 2.985079693214437611e+03 2.989667941453479216e+03 2.988701100882075025e+03 2.990403985190903768e+03 2.999691572606472164e+03 3.029515135803834255e+03 3.073403006907243707e+03 3.125553021723946586e+03 3.213570406901071692e+03 3.263993527609722150e+03 3.319905849421666062e+03 3.336999359309467309e+03 3.337317365865276315e+03 3.324273230242512454e+03 3.311689545583506515e+03 3.281086260614206822e+03 3.242422093875546125e+03 3.206667920624936869e+03
2.649682458992003376e+03 2.637350037726400842e+03 2.622381778569910239e+03 2.611291826611960460e+03 2.600777788973404768e+03 2.593807298195517888e+03 2.590397508901975016e+03 2.589467976658041607e+03 2.594698721364542052e+03 2.609893258426455759e+03 2.631479678453798897e+03 2.652359586020595998e+03 2.688198714891935651e+03 2.717535699655593817e+03 2.771984440143024131e+03 2.824595165356956386e+03 2.869742030280190647e+03 2.948249512334605697e+03 2.996901459391673143e+03 3.074182918165256979e+03 3.142846049450873124e+03 3.201086196727117567e+03 3.295684412962214992e+03 3.339468098074261889e+03 3.372788955323483151e+03 3.352331253841516173e+03 3.318800895073163701e+03 3.235210768437500064e+03 3.177040883471934194e+03 3.083254900709078811e+03 3.011723835471692382e+03 2.949620550819905475e+03 2.847256173222620873e+03 2.791967917174652939e+03 2.707214777636272629e+03 2.660229200678082634e+03 2.625638291043605932e+03 2.585021484339743893e+03 2.565484099232201970e+03 2.532523185307681615e+03 2.509848956586015447e+03 2.496678362680716418e+03 2.477801803881216983e+03 2.477280453159792614e+03 2.486190074214589458e+03 2.516839082903907638e+03 2.547213201877468691e+03 2.616564565268939987e+03 2.657267401560005965e+03 2.726680193768378558e+03 2.778695277248807088e+03 2.822945944036895526e+03 2.894486896540185171e+03 2.934138928261874298e+03 2.994253239333604142e+03 3.033640029646471703e+03 3.051576343997166532e+03 3.082848898811595973e+03 3.102435041681490929e+03 3.151462496582920267e+03 3.218273786862635006e+03 3.283993253361349616e+03 3.397021051507213542e+03 3.444978113092570311e+03 3.480311534642429706e+03 3.440582340402392674e+03 3.377017058257678400e+03 3.243339785208477224e+03 3.163960745487146596e+03 3.070997646526171138e+03 3.028257924419554001e+03 3.010239013579490802e+03 2.997863625843716363e+03 2.996165544586642227e+03 2.988874848492398087e+03 2.987790996296368576e+03 2.992985636418970898e+03 3.000923451446411946e+03 3.009017938865095857e+03 3.019001288161936372e+03 3.023329558179652395e+03 3.024520311926910836e+03 3.030487734130257195e+03 3.042932095715050764e+03 3.074936534572263554e+03 3.123030477307559977e+03 3.181521274420085774e+03 3.278405063639066157e+03 3.328610406559571402e+03 3.385947104210428279e+03 3.397194544132496503e+03 3.388230981763005730e+03 3.360721168728134217e+03 3.334248349322410832e+03 3.289405349454791576e+03 3.240511619814620644e+03 3.195873157395365070e+03
2.561838306371954332e+03 2.551079821924545286e+03 2.551657741668898325e+03 2.550121754064334709e+03 2.552493668224758494e+03 2.556106282672106317e+03 2.560639394650877421e+03 2.569627268228809953e+03 2.577294457566750225e+03 2.595316788691101010e+03 2.608475174134748613e+03 2.624004651014342926e+03 2.646490822528430272e+03 2.664001281946507788e+03 2.708691610080684313e+03 2.762464033052603554e+03 2.808757829817129277e+03 2.895980475401560852e+03 2.946582857808437439e+03 3.031343168171638354e+03 3.108287428055377404e+03 3.168232740077050948e+03 3.269680914679384387e+03 3.314346203127279750e+03 3.350326986946492525e+03 3.324411485156063009e+03 3.286448053723020621e+03 3.189475101934180657e+03 3.128815679473305408e+03 3.031823118583156884e+03 2.954077560751332385e+03 2.897931386339140772e+03 2.799549779359589593e+03 2.743327507937313385e+03 2.662322713161514002e+03 2.603441332930554381e+03 2.561825762889459384e+03 2.504570461593531945e+03 2.475259493157771885e+03 2.431815907797459204e+03 2.400438194165114055e+03 2.383140956852847467e+03 2.362416169616489697e+03 2.355105914923876298e+03 2.375913290291851808e+03 2.414059477224026523e+03 2.458308061786818143e+03 2.553518726143882759e+03 2.609624791754559737e+03 2.705821663055452518e+03 2.773673095200412263e+03 2.830537823848676908e+03 2.922570784660870686e+03 2.977843802788391258e+03 3.045273676688093929e+03 3.085506521058190629e+03 3.106058202579763474e+03 3.127870895904235113e+03 3.144675538284828235e+03 3.186992654249334919e+03 3.246377050841585060e+03 3.309910535358410471e+03 3.405970629984306470e+03 3.456265373066954453e+03 3.490715720739927292e+03 3.450104706982868720e+03 3.393011877879016083e+03 3.270306120549460957e+03 3.196024457176180476e+03 3.108877298730913481e+03 3.078731323304814396e+03 3.066006334504263577e+03 3.052964440631416437e+03 3.054120048173492250e+03 3.050045761600873448e+03 3.048584243403438450e+03 3.049621199631107629e+03 3.057555523307839394e+03 3.062293840539529356e+03 3.073480770759209008e+03 3.079826891649766822e+03 3.084237033594830791e+03 3.092977612638980190e+03 3.104333304541001326e+03 3.140336617365731399e+03 3.200331070555085716e+03 3.259083281167206223e+03 3.363883305245768042e+03 3.420525448850229168e+03 3.471115377265706684e+03 3.474067913164547008e+03 3.452809132038357347e+03 3.402545759312899008e+03 3.360360681777332502e+03 3.294398682750259468e+03 3.234641493696865382e+03 3.183097789497610847e+03
2.508295949662980547e+03 2.498540703824076445e+03 2.501527210549583742e+03 2.502728095340713480e+03 2.511973179483641161e+03 2.517686725955555630e+03 2.525080333346533280e+03 2.542430148264313175e+03 2.555952355034312859e+03 2.574469563606987776e+03 2.585690558409091409e+03 2.598363674371316847e+03 2.615859867503493206e+03 2.630665042639411695e+03 2.673446422382911351e+03 2.730345050181834267e+03 2.775443949290335695e+03 2.870524913125737839e+03 2.927879239219499141e+03 3.013492475895004191e+03 3.090970661937027216e+03 3.156300377908924474e+03 3.260222923129503215e+03 3.311225787381623832e+03 3.341443789533527706e+03 3.318396151620116598e+03 3.272989240995816544e+03 3.167680487453037586e+03 3.098245880917751037e+03 2.998918033159341576e+03 2.925176960864923785e+03 2.870015233366883422e+03 2.774627940733486867e+03 2.722841911762883683e+03 2.638910943521558693e+03 2.577124964151687436e+03 2.530061562623129248e+03 2.464835204997850724e+03 2.426163658244626731e+03 2.374781974947110029e+03 2.343359585933218113e+03 2.318786250359516544e+03 2.290599865912848145e+03 2.284622700478724710e+03 2.302311430825438492e+03 2.350255747180973685e+03 2.400271725848854203e+03 2.511004477879752358e+03 2.578668920918585172e+03 2.681100639138221595e+03 2.762025454004052335e+03 2.825327607725002053e+03 2.926990624968636894e+03 2.986406547298769965e+03 3.060198325370988641e+03 3.104707217798134025e+03 3.122257546706100129e+03 3.145267205021671998e+03 3.158771766036240933e+03 3.200443612639530784e+03 3.257869422963746729e+03 3.317767924873383890e+03 3.414886979743673692e+03 3.461872346096970887e+03 3.492371578410030452e+03 3.460059577497320333e+03 3.408726747026547400e+03 3.293316098469584631e+03 3.227313807157976953e+03 3.147776869749515754e+03 3.116576599196525422e+03 3.105515867605840867e+03 3.102946240915233375e+03 3.101719754349322557e+03 3.100557111128221095e+03 3.098402991123931315e+03 3.099794060638382689e+03 3.102561445051805094e+03 3.106372537280773486e+03 3.113522336890896895e+03 3.120708378771893422e+03 3.127041355910052062e+03 3.136115256352393772e+03 3.151158072128931963e+03 3.187367655831651064e+03 3.242539461889620270e+03 3.300521084107509523e+03 3.399377423904274110e+03 3.455330244569046499e+03 3.502198218217085468e+03 3.490374630301387697e+03 3.466055914225772085e+03 3.402549592602033499e+03 3.354817908297904069e+03 3.281648845670529226e+03 3.218974325160447734e+03 3.167276107987815976e+03
2.479759687376419606e+03 2.469489718643757897e+03 2.467710731200701957e+03 2.467099457292579245e+03 2.475883764748434714e+03 2.479400120265585429e+03 2.489584472571787501e+03 2.507572858453906974e+03 2.526026671019041714e+03 2.549553883929506355e+03 2.562371594162060319e+03 2.575154545261853400e+03 2.593783397700249679e+03 2.615493607369975052e+03 2.658291451250772752e+03 2.715603151419914411e+03 2.770920550347065728e+03 2.864995977494041654e+03 2.921129849665995152e+03 3.019498204138668825e+03 3.098380443752896554e+03 3.165799264830769971e+03 3.269618166426305379e+03 3.315303359992121841e+03 3.351345690853167980e+03 3.323510871634500745e+03 3.271855489489948013e+03 3.163539581957346400e+03 3.091005819020354465e+03 2.985481214610947518e+03 2.912617748302534892e+03 2.855553337972712143e+03 2.766960661293466728e+03 2.717650173148999784e+03 2.632345184539880393e+03 2.569045349306982189e+03 2.522028002809746340e+03 2.448918291014511396e+03 2.407768429825630392e+03 2.352527982174425233e+03 2.313629406712227592e+03 2.289254087931563390e+03 2.256914882527176360e+03 2.247815035277605602e+03 2.262941314735050128e+03 2.310558909664087423e+03 2.364676946542143014e+03 2.477568716571297045e+03 2.548309654114317709e+03 2.654743001985782485e+03 2.740936281102555313e+03 2.806133600531578850e+03 2.911627233872975012e+03 2.971278970827535431e+03 3.049109807725034898e+03 3.095142519829495541e+03 3.115340715069211910e+03 3.142244720213338951e+03 3.159777477851522235e+03 3.202942659722013104e+03 3.261020555387349759e+03 3.315764462844125319e+03 3.412508125450092393e+03 3.459793016074962907e+03 3.495682915915690501e+03 3.468695646228328769e+03 3.421381366765725033e+03 3.315232273789051760e+03 3.257759352226598821e+03 3.185802942675116356e+03 3.159551808819410780e+03 3.147845773466383889e+03 3.144975954536963854e+03 3.148007826700433725e+03 3.146381052702417037e+03 3.144042130059186093e+03 3.141373920302009537e+03 3.138795271100962964e+03 3.140134845061598753e+03 3.149411606941230275e+03 3.151335041660599018e+03 3.160246390742251606e+03 3.170064647307031464e+03 3.185381470824246207e+03 3.217765997946728476e+03 3.267234147185228721e+03 3.315449963202041999e+03 3.403268776296323722e+03 3.449148423297442605e+03 3.484960554143769969e+03 3.475769372083769213e+03 3.446697538052408163e+03 3.375945172925182305e+03 3.331196884807310653e+03 3.255116618555689911e+03 3.200592872001095657e+03 3.154376726154155222e+03
2.446970020657912301e+03 2.428815072351667823e+03 2.402487772857059099e+03 2.399577165444498405e+03 2.395439713190398379e+03 2.398348658333324238e+03 2.405395053783491676e+03 2.433120163240916554e+03 2.448476780907650209e+03 2.482949585387689240e+03 2.506573347670027488e+03 2.522934531713762681e+03 2.559959593597625826e+03 2.589953613198362746e+03 2.644871477903299819e+03 2.712472584021248622e+03 2.767535039625120589e+03 2.873860717162441233e+03 2.938417208052787373e+03 3.037085766980746484e+03 3.119367203716124095e+03 3.188757228868913444e+03 3.299639200171749508e+03 3.347931553825664196e+03 3.377800575827087414e+03 3.341904491417751160e+03 3.285223846633646190e+03 3.164909482709615986e+03 3.081679094627903396e+03 2.966275888248329920e+03 2.899630131914025696e+03 2.846742218379961741e+03 2.765054192877493733e+03 2.716610757162909067e+03 2.639903618895135423e+03 2.573189409540966608e+03 2.527994382801809479e+03 2.443668496417402821e+03 2.397368737646193495e+03 2.335983949786353605e+03 2.289233335962771434e+03 2.251831276743263970e+03 2.203252705171046273e+03 2.190950719922882399e+03 2.198429292766192702e+03 2.239916707920829595e+03 2.293838609998000265e+03 2.407976144090562229e+03 2.481855435688257785e+03 2.593441320705881935e+03 2.678077007149360725e+03 2.740672279063304359e+03 2.851625453554226624e+03 2.909553338737513059e+03 2.995782973918280732e+03 3.047076298005728404e+03 3.072624763335004445e+03 3.109241414087808153e+03 3.136294344495976020e+03 3.187048395050492672e+03 3.249628782217365824e+03 3.311766419866975411e+03 3.413062827427789671e+03 3.460538769664532538e+03 3.505970663971878366e+03 3.491143000558184212e+03 3.456060811406535777e+03 3.377450637335982719e+03 3.324202723658267132e+03 3.270074073589989894e+03 3.249029752100079804e+03 3.245947271211697171e+03 3.247326835468878471e+03 3.250647981082104707e+03 3.247707946877872473e+03 3.240022135339886063e+03 3.229141233811989423e+03 3.219395872630657777e+03 3.211875634633032860e+03 3.206982892067755074e+03 3.211084259889667919e+03 3.218408702297238506e+03 3.234987264176638291e+03 3.245930595404470751e+03 3.268451666516149999e+03 3.298662029932022051e+03 3.328092153323689672e+03 3.377777475112933189e+03 3.403190088151567579e+03 3.416736583983986293e+03 3.395315438947055554e+03 3.365283812789087278e+03 3.299865517388363514e+03 3.257019711812353762e+03 3.199969723686939233e+03 3.161539152166539679e+03 3.129433791349552848e+03
2.433143584676556657e+03 2.402790612587868509e+03 2.366931237171046632e+03 2.352002923661006207e+03 2.339919153072750305e+03 2.345682441988079063e+03 2.355778714801775095e+03 2.379657576934604549e+03 2.398478578333778842e+03 2.439980865543737764e+03 2.467076172027407665e+03 2.493968844727868145e+03 2.539552550169180449e+03 2.573987659083838480e+03 2.641633262116519290e+03 2.711134890150485262e+03 2.770930763502412901e+03 2.884832145577890060e+03 2.951194020013419049e+03 3.052173035565770533e+03 3.138321924440389921e+03 3.207577120489475874e+03 3.318789951958766778e+03 3.367243531256134702e+03 3.400225848671034782e+03 3.360588501793803061e+03 3.299957534172243868e+03 3.164939471196687919e+03 3.081712965248465480e+03 2.964638871722062049e+03 2.891127473562974046e+03 2.845401766167037295e+03 2.768140676209206958e+03 2.724247937697968609e+03 2.648277685071979249e+03 2.585314097413455784e+03 2.536344241941533710e+03 2.451422623572998418e+03 2.404256951792449854e+03 2.334914383683618780e+03 2.282840455258044130e+03 2.245032563881365604e+03 2.183386565611056085e+03 2.162654614555515764e+03 2.164343324518342342e+03 2.203119208461293965e+03 2.256051655891718838e+03 2.364876378501276577e+03 2.439961321488105568e+03 2.548183634048593831e+03 2.631266709597219688e+03 2.696005060832992513e+03 2.802560143327636524e+03 2.860859271100460319e+03 2.952663278376975541e+03 3.005337324786887621e+03 3.035478560444008963e+03 3.081233536787620324e+03 3.111612764886626792e+03 3.171579755159827528e+03 3.238489006586236428e+03 3.301761262472387443e+03 3.404676620514708247e+03 3.460454386776647880e+03 3.506618559579442262e+03 3.501265212732778309e+03 3.475815412417235166e+03 3.407008870613668023e+03 3.371905858537686072e+03 3.320558437305424377e+03 3.310786572407980202e+03 3.306891691221552264e+03 3.306842754809406870e+03 3.309099628996683350e+03 3.307937564259854753e+03 3.296001075471387139e+03 3.284390928584170069e+03 3.263946679990005123e+03 3.251255558779260355e+03 3.240586836915813365e+03 3.246566011820071253e+03 3.252390906129868654e+03 3.264287378903131412e+03 3.273356520336640642e+03 3.293032962151864922e+03 3.306456742327760367e+03 3.324629035559699332e+03 3.349501802627485631e+03 3.356773113122752875e+03 3.354736693834106518e+03 3.329738223323887269e+03 3.301630782226685369e+03 3.243866509118391605e+03 3.207614205973310163e+03 3.158827360047004277e+03 3.129171327789887528e+03 3.112549342514771979e+03
2.411509103152231546e+03 2.370221756207822182e+03 2.315378386563834283e+03 2.288204501664884447e+03 2.262411906288654336e+03 2.264164813213282741e+03 2.274922600849381979e+03 2.307056033302034393e+03 2.332880614364290068e+03 2.376283414039171930e+03 2.416626124792607698e+03 2.449099502327002483e+03 2.513407870594312953e+03 2.555200278724753389e+03 2.639621650857480290e+03 2.718296933362199070e+03 2.779783042552116967e+03 2.898941065142637854e+03 2.965085189296989938e+03 3.074008381948480746e+03 3.163792034801288537e+03 3.238821124483510175e+03 3.347187023926856909e+03 3.400635032892200343e+03 3.427152874211577000e+03 3.384554852355387993e+03 3.316780932966463297e+03 3.169422692677066607e+03 3.080706228876149908e+03 2.954623532248775973e+03 2.888029637304048720e+03 2.845313460703076089e+03 2.779726366060263445e+03 2.740506886124273478e+03 2.670920346688174504e+03 2.605058741669534811e+03 2.557828089516871387e+03 2.469271842088247922e+03 2.420658694849696076e+03 2.346929849181003192e+03 2.286698074183324479e+03 2.240290907103882091e+03 2.166071099582202805e+03 2.137468048643166185e+03 2.125834486070780713e+03 2.163029427409890104e+03 2.206528351211620247e+03 2.310637744849328556e+03 2.376403754048862993e+03 2.482041650396146451e+03 2.562929477802038946e+03 2.619917004999494566e+03 2.725350462487483583e+03 2.782519335645512456e+03 2.874126921701886658e+03 2.930287180007719144e+03 2.974029544196227562e+03 3.034776337348776906e+03 3.070127117225950769e+03 3.139306545100159383e+03 3.217247803217502678e+03 3.278311054120657445e+03 3.389838449080960345e+03 3.445077412773438482e+03 3.501730033145372090e+03 3.507811617048981589e+03 3.495362749036613423e+03 3.450502419641309189e+03 3.419694765428627761e+03 3.388717913903566114e+03 3.380333699647634603e+03 3.381184224653254205e+03 3.385616819488888268e+03 3.385669316519397398e+03 3.378952809415048705e+03 3.365638101019828355e+03 3.346163641814883249e+03 3.313204593511117309e+03 3.293416036010892185e+03 3.275986304689309691e+03 3.277039201292311191e+03 3.279690415655195466e+03 3.295988870666099956e+03 3.306737326586545805e+03 3.306794567686511527e+03 3.303162846177732717e+03 3.295413431094733369e+03 3.279839711975380396e+03 3.266612185318719639e+03 3.242893748881808733e+03 3.211924386859852802e+03 3.184331385130743456e+03 3.137804657623619278e+03 3.110823777291692750e+03 3.083551042780954504e+03 3.072976643402601894e+03 3.075574928883647772e+03
2.392265578148144414e+03 2.349787708157516136e+03 2.279049886375093138e+03 2.248779722046160714e+03 2.217536717598268297e+03 2.220678034006379676e+03 2.234095517260391262e+03 2.272084915805442506e+03 2.300951814159190235e+03 2.353569319381335390e+03 2.396769059218539496e+03 2.433360043332766509e+03 2.502581548495154948e+03 2.552471198580235523e+03 2.639703175306633966e+03 2.715651342558567649e+03 2.784570911766338668e+03 2.899112814804895606e+03 2.969919027963961980e+03 3.077325911650079433e+03 3.168406457631169815e+03 3.245114956137228546e+03 3.358448217229745751e+03 3.413821027147410859e+03 3.437092959496482763e+03 3.391870613937221151e+03 3.323813783395466089e+03 3.167916167532261625e+03 3.075698032321059600e+03 2.947482731080909616e+03 2.879001732930033995e+03 2.841587416094837408e+03 2.781705178097038697e+03 2.743390672740763421e+03 2.683378790627639319e+03 2.619139327830035654e+03 2.571022938678323499e+03 2.489408351169310208e+03 2.446885165948666781e+03 2.371482561568089750e+03 2.305306566098041912e+03 2.253409758313461680e+03 2.175813409540200610e+03 2.139913383467464882e+03 2.122151450877880052e+03 2.149457173433889693e+03 2.192467927410120865e+03 2.285493482559846598e+03 2.350701648866231608e+03 2.448358594481734144e+03 2.523171903097987524e+03 2.578102548441924228e+03 2.677799959979712185e+03 2.734088885086064693e+03 2.824982187189663364e+03 2.887156914303061967e+03 2.930849397987894918e+03 2.997620035646271845e+03 3.039496247841024342e+03 3.115053056694368934e+03 3.191620378309864464e+03 3.256760076145992571e+03 3.361220516638071331e+03 3.420949797951338496e+03 3.481908367295155131e+03 3.489009681213077783e+03 3.480495504646757581e+03 3.447490105559916628e+03 3.420228675437159836e+03 3.397889476813935744e+03 3.394634517174115899e+03 3.394363137700835523e+03 3.398053947988451910e+03 3.399409622711444626e+03 3.393493841069840073e+03 3.377088199179680942e+03 3.353500768679402881e+03 3.318583099560469236e+03 3.293323882055488411e+03 3.272530204141094146e+03 3.266315073898948413e+03 3.271572108707006009e+03 3.289724957473501945e+03 3.291748120632025348e+03 3.292548071866001919e+03 3.274091527903511633e+03 3.256329406040095364e+03 3.223628096189719145e+03 3.200046874688856860e+03 3.161203174369849876e+03 3.133661872432532164e+03 3.105450190424629454e+03 3.063129613948806764e+03 3.045570570444117948e+03 3.024128476071758996e+03 3.030062526949026051e+03 3.042303301709591778e+03
2.374342717095833905e+03 2.331782699096288979e+03 2.262957181952470364e+03 2.229813828758091404e+03 2.200489753485457186e+03 2.201902336514821400e+03 2.217754096588259927e+03 2.261629315856644553e+03 2.297223787346194058e+03 2.354359834660237539e+03 2.397099820758618080e+03 2.435064724036888947e+03 2.505775167886393319e+03 2.550263654853637945e+03 2.633265565363007681e+03 2.712226776330283428e+03 2.779983192528296968e+03 2.894785303150218624e+03 2.960811917128284222e+03 3.071388155841983462e+03 3.161951156637977874e+03 3.235937544082475142e+03 3.356109372780696958e+03 3.406286582281996289e+03 3.439604934920845608e+03 3.389044133281360246e+03 3.317994024981732764e+03 3.161473752334972687e+03 3.069889188478142842e+03 2.939815821559204778e+03 2.875801797023841573e+03 2.834473792883077294e+03 2.778550858747967141e+03 2.743842980440259453e+03 2.684279593034229947e+03 2.626430798392286761e+03 2.582212341409607689e+03 2.507230073869048738e+03 2.464442065688384446e+03 2.393510272681644892e+03 2.334971691915084648e+03 2.278863196131879704e+03 2.197794555508530721e+03 2.161401318316139623e+03 2.135188011598450430e+03 2.163310551705120361e+03 2.199377801653111419e+03 2.284299689690261857e+03 2.345862985563967868e+03 2.440931663763502456e+03 2.507258784896834186e+03 2.561712284030288174e+03 2.655126708637777938e+03 2.714401587699561333e+03 2.802749366782376910e+03 2.863642292728857228e+03 2.904655591598033425e+03 2.971087877621258031e+03 3.013411214951261627e+03 3.090010498621921670e+03 3.163751062575643118e+03 3.229494198572149344e+03 3.329256060848379093e+03 3.383791198396098935e+03 3.443770299631878515e+03 3.456438532380097513e+03 3.446474046665017795e+03 3.412651443248591022e+03 3.393911051759708243e+03 3.369490001057284189e+03 3.366929515465270470e+03 3.366355261362006331e+03 3.373789356872010103e+03 3.375920664321811273e+03 3.369395549810115426e+03 3.347362426391081499e+03 3.328865134766438587e+03 3.289899017535495659e+03 3.265075342444917169e+03 3.239753126462619548e+03 3.238091246577875609e+03 3.241987815354050326e+03 3.253686462117570500e+03 3.258167956574256550e+03 3.254985682796434958e+03 3.234711294854103016e+03 3.216118806251356091e+03 3.174555681726490093e+03 3.146112011548001647e+03 3.111614352367459105e+03 3.078681951963204938e+03 3.054423915517972091e+03 3.016219248188150232e+03 3.000933414745969458e+03 2.983320584865198725e+03 2.992693749087177821e+03 3.007617631983272076e+03
2.344825378429655757e+03 2.298369453010004690e+03 2.233231861182391185e+03 2.203596713500278383e+03 2.179931922883776679e+03 2.193707772408177334e+03 2.216564186890692326e+03 2.277668541272709717e+03 2.317081746996816946e+03 2.379423208984731446e+03 2.425396591218104277e+03 2.458069225131343501e+03 2.515011531734434811e+03 2.553124683923527300e+03 2.625065197159839045e+03 2.697221240376848527e+03 2.759777009442047984e+03 2.866926012390058531e+03 2.930232215336022819e+03 3.037038918420843402e+03 3.131308010717938942e+03 3.209042177692227597e+03 3.334797121151244937e+03 3.389184805574181610e+03 3.427871879741594967e+03 3.376098928157337923e+03 3.303970435411550625e+03 3.152724095787311398e+03 3.052720827489800740e+03 2.927717987653741147e+03 2.862089618804395286e+03 2.817989361678676232e+03 2.761098898431854195e+03 2.733847221567422821e+03 2.677682805704884686e+03 2.634288966217312463e+03 2.600732798613757950e+03 2.545307968016494215e+03 2.516967786829004126e+03 2.456658529456956330e+03 2.401373054801147191e+03 2.351917277605211439e+03 2.269059050988094441e+03 2.228275814540802912e+03 2.201986282045734697e+03 2.212595602126167705e+03 2.246065685269872120e+03 2.312846277885716972e+03 2.361074338719425214e+03 2.440395166819445421e+03 2.500949627754472658e+03 2.552097685657850434e+03 2.634724364362059077e+03 2.688738047295789329e+03 2.765186369142365947e+03 2.822318534512309270e+03 2.863450464869783445e+03 2.928022789368136728e+03 2.968056525024999246e+03 3.035999504742454519e+03 3.106342966443561636e+03 3.164404940863797947e+03 3.254406530657178337e+03 3.305105553981360572e+03 3.355823834371115481e+03 3.363415099413164171e+03 3.350684706915923925e+03 3.316186539516031189e+03 3.291771367334105435e+03 3.267448888677378818e+03 3.262472375013004694e+03 3.269064309822092127e+03 3.277944178714997634e+03 3.279411406882941264e+03 3.274558458137526486e+03 3.253004789632358552e+03 3.237403676436045771e+03 3.197298081982360145e+03 3.176987577709517609e+03 3.150160626174374102e+03 3.147819436270865026e+03 3.146159679756213791e+03 3.153737474300420217e+03 3.159470403604316743e+03 3.148759059340656677e+03 3.133840199839925845e+03 3.112781865867459601e+03 3.074439357660883616e+03 3.052127176155852794e+03 3.017762241600064499e+03 2.991182460203446226e+03 2.969114886461211427e+03 2.938184788489323182e+03 2.925955516254955910e+03 2.918215083904879066e+03 2.927487311196638075e+03 2.944870146333582397e+03
2.322271880944922941e+03 2.281801813401937579e+03 2.220155656277828712e+03 2.196696240721028062e+03 2.175879271901298125e+03 2.193738568737076548e+03 2.227361950103328581e+03 2.292328529025597163e+03 2.341423928930780221e+03 2.409022363371723713e+03 2.447026948277088650e+03 2.474917136917552398e+03 2.524232356161427560e+03 2.559437256826415705e+03 2.621324639125301474e+03 2.692012527695952940e+03 2.746939123878052669e+03 2.849602259423964824e+03 2.907067683663920889e+03 3.011020574241110353e+03 3.104020941265828242e+03 3.188189061551234317e+03 3.315836792945773595e+03 3.374785740193880883e+03 3.411424370812785583e+03 3.369021844127138593e+03 3.295495372313063399e+03 3.138956884698160138e+03 3.045941894590258471e+03 2.917582710217750900e+03 2.853696287179362116e+03 2.812755446087099244e+03 2.755834172751939150e+03 2.723845399821775572e+03 2.676587203157755539e+03 2.635961488301035843e+03 2.611907353488133595e+03 2.574288620582201474e+03 2.549826503604218487e+03 2.501030786276505751e+03 2.448947673638395827e+03 2.399702965102788312e+03 2.321792199873283153e+03 2.283446493319804631e+03 2.247393617848596932e+03 2.259488443974877555e+03 2.279649618646744329e+03 2.338630252288832708e+03 2.381775962192319639e+03 2.451421443618723970e+03 2.504374024070558789e+03 2.547915648905392572e+03 2.629073068089294793e+03 2.675327383712120081e+03 2.751533783101066547e+03 2.805375518969869972e+03 2.840084351277616406e+03 2.900249476002463325e+03 2.939837005323991889e+03 3.004303127830759877e+03 3.066493562660881253e+03 3.119336563086965270e+03 3.204858599436729037e+03 3.249549026195423721e+03 3.297628002144536367e+03 3.300395510992182153e+03 3.282715386778139418e+03 3.245257009908245436e+03 3.219798568763180810e+03 3.188147311823146993e+03 3.188301485832306753e+03 3.187914294779624015e+03 3.195634740914673785e+03 3.200003021747123967e+03 3.195783757676357709e+03 3.182667820407110412e+03 3.163207229414793801e+03 3.125239917675378365e+03 3.107507562389018858e+03 3.084094683649545459e+03 3.073849068883428572e+03 3.074750817220549379e+03 3.077079417428559282e+03 3.079816130291784248e+03 3.076084827115013468e+03 3.059916471497365364e+03 3.041418098827064568e+03 3.008136532933438957e+03 2.992356276554921351e+03 2.960265609086562563e+03 2.940326566728175294e+03 2.921411438072771944e+03 2.892678376446543098e+03 2.883911233910700503e+03 2.874761651788647669e+03 2.886631714100858972e+03 2.900481459578279555e+03
2.306880774470585493e+03 2.266770584605922068e+03 2.213844526480466357e+03 2.193294201562189755e+03 2.181785128130110024e+03 2.209417128524810778e+03 2.249740398394074873e+03 2.331054461420456391e+03 2.386320998445361511e+03 2.455569965544518254e+03 2.497574143626726254e+03 2.516281167654463843e+03 2.553878526550068727e+03 2.574482840406391460e+03 2.629013930755396814e+03 2.688627214249648659e+03 2.735664022110991027e+03 2.829368572328387927e+03 2.882542901101805001e+03 2.978554409477513673e+03 3.072346126111327976e+03 3.154892535590657189e+03 3.287090016277191808e+03 3.347170690825354086e+03 3.389362385152974184e+03 3.349144582284083754e+03 3.278052519692494116e+03 3.126419491060724795e+03 3.033664624093737075e+03 2.906528657448187005e+03 2.843101905365195307e+03 2.805777646070537685e+03 2.752336370633743627e+03 2.727714968546401906e+03 2.681830231315222136e+03 2.656507397992671031e+03 2.643975090563831145e+03 2.626898527987254511e+03 2.611684194787018896e+03 2.577874756243198590e+03 2.532912601411504966e+03 2.487752998809464316e+03 2.411142076298496704e+03 2.369617850400945827e+03 2.332782961580563097e+03 2.329306297759530025e+03 2.343703731870208685e+03 2.383760788330579999e+03 2.410699011294265802e+03 2.459883864979863120e+03 2.505462493498761432e+03 2.545642549421161675e+03 2.615054391266147377e+03 2.658548473039508735e+03 2.724572934801447445e+03 2.771865068964335478e+03 2.808020799400425403e+03 2.865784300329742109e+03 2.897011323866115617e+03 2.955101555583185473e+03 3.010635266043687807e+03 3.059558611641995412e+03 3.135606098224427114e+03 3.172993607380789399e+03 3.208478952532622770e+03 3.203365899864906169e+03 3.179834843970360453e+03 3.129745335174312913e+03 3.096173088799662310e+03 3.064053147790734783e+03 3.056092462556870487e+03 3.054819724514346944e+03 3.064288839547451062e+03 3.067040443588115977e+03 3.062092252466020909e+03 3.046774592283246420e+03 3.032603186003024348e+03 3.000407002489608203e+03 2.984990314100800333e+03 2.961951086872398719e+03 2.953110462273880330e+03 2.951928003911181804e+03 2.949956831071589022e+03 2.945065885113145669e+03 2.941775083871152219e+03 2.928377728605309585e+03 2.919760007703667725e+03 2.898351760318793822e+03 2.888155840883486690e+03 2.869316060388557617e+03 2.852473476494705210e+03 2.842056083432801643e+03 2.818562796518745927e+03 2.808376788490717445e+03 2.802347572498837508e+03 2.813220157630947142e+03 2.826297265692021483e+03
