NCOLS 97
NROWS 39
xllcorner 902500
yllcorner 178500
cellsize 1000.0 
NODATA_value -9999
2.566000000000000000e+03 2.592172612547227800e+03 2.602835765262066616e+03 2.641987158467412883e+03 2.635546675285499987e+03 2.685817307757448361e+03 2.664860994269478851e+03 2.724981769808390709e+03 2.692116430461501750e+03 2.759968642379546509e+03 2.717529011301083301e+03 2.790634216228136211e+03 2.740952499545536284e+03 2.816575924936600586e+03 2.762397471069738458e+03 2.837337139043107982e+03 2.782165772844074581e+03 2.852500006275689429e+03 2.800625547693411590e+03 2.861692380185593720e+03 2.817803709263736891e+03 2.864551992823273395e+03 2.833053111964472009e+03 2.860715709296537625e+03 2.844994049045142219e+03 2.849894294612681733e+03 2.851771694937961456e+03 2.832047484450956290e+03 2.851510269275195697e+03 2.807614458682434815e+03 2.842770382284779316e+03 2.777712008550998235e+03 2.824858478330530488e+03 2.744202954227630926e+03 2.797953971272264880e+03 2.709562280743485644e+03 2.763122553130201140e+03 2.676526316517295072e+03 2.722298350877372286e+03 2.647594244506220093e+03 2.678238748902846964e+03 2.624534197138408217e+03 2.634359903051954916e+03 2.608080060463753853e+03 2.594347654318408331e+03 2.597950869821003380e+03 2.561545914520952465e+03 2.593190745976904509e+03 2.538290181273662256e+03 2.592677966022438795e+03 2.525456473027351421e+03 2.595572188362702491e+03 2.522445104202615767e+03 2.601510403212558231e+03 2.527622327837161265e+03 2.610505469097102377e+03 2.539008799671343240e+03 2.622662233966992062e+03 2.554875890667891326e+03 2.637906133705786488e+03 2.573977061324850183e+03 2.655869155239397969e+03 2.595369416352436019e+03 2.675937780754038613e+03 2.618028532738493141e+03 2.697341254743975696e+03 2.640567682570062516e+03 2.719140371461985524e+03 2.661274296891003360e+03 2.740080413890559157e+03 2.678446896337901308e+03 2.758418746857898896e+03 2.690814606994679252e+03 2.771914972459684122e+03 2.697777525314520517e+03 2.778112954890678338e+03 2.699331594100171969e+03 2.774876831185840729e+03 2.695735836129753807e+03 2.760971496666459643e+03 2.687111317446054727e+03 2.736413343494778474e+03 2.673159987979284779e+03 2.702402298464618980e+03 2.653084675879290444e+03 2.660826394582716603e+03 2.625663202499508316e+03 2.613489852677684667e+03 2.589345474949987874e+03 2.561254807613400772e+03 2.542197981136152066e+03 2.503162528141421262e+03 2.481417773884772487e+03 2.435218156462772185e+03 2.401516622906888188e+03 2.346564016555687886e+03 2.284000000000000000e+03
2.635000000000000000e+03 2.644810379358888440e+03 2.670822483067436679e+03 2.662930723328845488e+03 2.704243301829938900e+03 2.681356412036740494e+03 2.735812075733284928e+03 2.700925750192361647e+03 2.765427872405585731e+03 2.721472529210584526e+03 2.792656340046047262e+03 2.742247638704731798e+03 2.816913270276294497e+03 2.762512132503897647e+03 2.837574943001400243e+03 2.781875920940552987e+03 2.854000430559128745e+03 2.800256561851525476e+03 2.865505340658023670e+03 2.817533057680902402e+03 2.871329120914232590e+03 2.833128743336178104e+03 2.870650346199975047e+03 2.845784820750476229e+03 2.862698854404468420e+03 2.853667247106160630e+03 2.846975783073641196e+03 2.854763533911964714e+03 2.823536508341105673e+03 2.847384994381377510e+03 2.793246061340372307e+03 2.830569662882086959e+03 2.757902097180131932e+03 2.804278346549455819e+03 2.720140556627319256e+03 2.769413642342588446e+03 2.683091236031343215e+03 2.727768091420484325e+03 2.649831597626967323e+03 2.681970034287714043e+03 2.622780642722803350e+03 2.635383866988930095e+03 2.603237613025747578e+03 2.591841880416700860e+03 2.591250849288428526e+03 2.555126132501628035e+03 2.585882517978673150e+03 2.528274074944247332e+03 2.585760541596006988e+03 2.512946144093758903e+03 2.589671820214908621e+03 2.509139503488815535e+03 2.596933865372356649e+03 2.515402931923189499e+03 2.607404056670151476e+03 2.529463414721610661e+03 2.621182374085346964e+03 2.548960072478610073e+03 2.638219744985199668e+03 2.571935090018229857e+03 2.658065026275065065e+03 2.596893261638753302e+03 2.679859753646160243e+03 2.622513996328615576e+03 2.702509424273402146e+03 2.647305790466707549e+03 2.724849935932387325e+03 2.669499121307662335e+03 2.745662023849666639e+03 2.687283553851497800e+03 2.763533760225033802e+03 2.699246092756530743e+03 2.776719849780978620e+03 2.704729111637300321e+03 2.783186200186111819e+03 2.703878885372508194e+03 2.780926235801854091e+03 2.697347033055357770e+03 2.768456553930530845e+03 2.685800743076651997e+03 2.745260751065145541e+03 2.669474774775246715e+03 2.711941231757688911e+03 2.647932785953888470e+03 2.669962191741775314e+03 2.620063718302983034e+03 2.621039809534982851e+03 2.584214225616201929e+03 2.566349494389890424e+03 2.538296639368946671e+03 2.505704702469292897e+03 2.479670634816563506e+03 2.436666729910357390e+03 2.404373203206771905e+03 2.352878858508112444e+03 2.304133023800705359e+03 2.239000000000000000e+03
2.710000000000000000e+03 2.715503977985543770e+03 2.706009760361848294e+03 2.734103641978259930e+03 2.709907475351999437e+03 2.755183271117185086e+03 2.718858198808433826e+03 2.777213158620677405e+03 2.732148364462450445e+03 2.799079170608336881e+03 2.748417022290941077e+03 2.819827489096865065e+03 2.766168528928418255e+03 2.838647728850999556e+03 2.784235967785651155e+03 2.854775044211262411e+03 2.801937253492005311e+03 2.867370089967385866e+03 2.818860382234642657e+03 2.875427569260882137e+03 2.834429818489908030e+03 2.877767194127325183e+03 2.847531077605126939e+03 2.873152111066599446e+03 2.856428091879100066e+03 2.860544058255349228e+03 2.859034516004401667e+03 2.839448628917056340e+03 2.853408320155620913e+03 2.810253535099566761e+03 2.838242226211183606e+03 2.774441713295459977e+03 2.813167513686975781e+03 2.734576804278948657e+03 2.778830234183041739e+03 2.694006929656458396e+03 2.736830073606047790e+03 2.656310114173483271e+03 2.689637820260236367e+03 2.624602397620800275e+03 2.640516130027421241e+03 2.600915644098274242e+03 2.593346071823928469e+03 2.585872038011565110e+03 2.552227463849703327e+03 2.578795643488817859e+03 2.520828095070283325e+03 2.578224899102112431e+03 2.501644614073980847e+03 2.582605255169625252e+03 2.495470413456455844e+03 2.590852449706871084e+03 2.501331103393264584e+03 2.602545050121331315e+03 2.516941199748714098e+03 2.617702775450971330e+03 2.539470630690581402e+03 2.636326391316286845e+03 2.566251950296297309e+03 2.657986363308292766e+03 2.595116946713987090e+03 2.681683696563832200e+03 2.624295672573135562e+03 2.706012524730351288e+03 2.652085023186678427e+03 2.729461652116246569e+03 2.676617060038503496e+03 2.750628702357371367e+03 2.695952567271035150e+03 2.768219422906792261e+03 2.708474153648144238e+03 2.780886366715379609e+03 2.713332262462434755e+03 2.787094028283562693e+03 2.710650532881436902e+03 2.785190380962582367e+03 2.701340174698861574e+03 2.773724852407586241e+03 2.686597555977336469e+03 2.751875231806460761e+03 2.667317892391574787e+03 2.719747081759699086e+03 2.643665785664731629e+03 2.678348694979426000e+03 2.614922189209577937e+03 2.629189792830038641e+03 2.579571822568835159e+03 2.573608162688178254e+03 2.535495263167515077e+03 2.512008223390790590e+03 2.480110251386626260e+03 2.443164239345382157e+03 2.410306553432966211e+03 2.363574373406979703e+03 2.321872182376633646e+03 2.266358357056239583e+03 2.207000000000000000e+03
2.767000000000000000e+03 2.764567056170937121e+03 2.776822531615099251e+03 2.751877637067600062e+03 2.784254281144023935e+03 2.747126841417326432e+03 2.796330910416227653e+03 2.750681270765572663e+03 2.811025324487335183e+03 2.760499743041848888e+03 2.826658384941533768e+03 2.774312929875074133e+03 2.842067624088940647e+03 2.790122055170309523e+03 2.856356862579114477e+03 2.806510774868869248e+03 2.868637078383340850e+03 2.822608763500400983e+03 2.877820458477086504e+03 2.837722155947220472e+03 2.882528480391365520e+03 2.850862589173807464e+03 2.881166062144168336e+03 2.860466986752645425e+03 2.872177406034246360e+03 2.864482085340165668e+03 2.854440065184994637e+03 2.860777716242688712e+03 2.827694507062440607e+03 2.847683769786823632e+03 2.792874394494805074e+03 2.824413926840066779e+03 2.752211246983813453e+03 2.791248406211638667e+03 2.709032569202849118e+03 2.749509872640566755e+03 2.667247666654940531e+03 2.701461024182423444e+03 2.630613860998782457e+03 2.650213792309247310e+03 2.601976941731177249e+03 2.599610634506858332e+03 2.582736026236588259e+03 2.553938958677660594e+03 2.572740746237575422e+03 2.517374326543814277e+03 2.570674121880699659e+03 2.493216297774693885e+03 2.574764445124404119e+03 2.483170301972852030e+03 2.583511648191755739e+03 2.486994899252960295e+03 2.596104326078401755e+03 2.502704299487815206e+03 2.612363627832667134e+03 2.527249217817640783e+03 2.632301010987293012e+03 2.557353881581383575e+03 2.655577176121982120e+03 2.590122631397829082e+03 2.681179464283088237e+03 2.623195869475207928e+03 2.707477442291856278e+03 2.654528517569093310e+03 2.732575191098182586e+03 2.682091318804802086e+03 2.754711204209469543e+03 2.703807465034964025e+03 2.772464983858465985e+03 2.717835806080328894e+03 2.784692999608315858e+03 2.723044279935749728e+03 2.790314508983371525e+03 2.719365620124738143e+03 2.788166223551653275e+03 2.707782890906951252e+03 2.777085481530952165e+03 2.689903082255024401e+03 2.756212052280570788e+03 2.667298108156658600e+03 2.725334028566403504e+03 2.640890934196386297e+03 2.685047509884714145e+03 2.610601328880876736e+03 2.636579806620839008e+03 2.575306069960728564e+03 2.581282531238329739e+03 2.533022784153335124e+03 2.519942366732183928e+03 2.481175161217893219e+03 2.452131450930445681e+03 2.416857809175717648e+03 2.375855930941864244e+03 2.337205537052086584e+03 2.287981158721704560e+03 2.240887610101805421e+03 2.189000000000000000e+03
2.857000000000000000e+03 2.837966916213245440e+03 2.809131198700738878e+03 2.824172140749843948e+03 2.786523657421985263e+03 2.823392911540006935e+03 2.777755451328057461e+03 2.829100251509339159e+03 2.779138833389347383e+03 2.838214373006072037e+03 2.787535406984712154e+03 2.848909330902678903e+03 2.800084897027714760e+03 2.860024260075308121e+03 2.814533270975043706e+03 2.870630851650223576e+03 2.829379867322119935e+03 2.879675856048749210e+03 2.843647196893489308e+03 2.885755031323461026e+03 2.856394599630158609e+03 2.887085522106463941e+03 2.866270987293586131e+03 2.881709657886951391e+03 2.871376169493015823e+03 2.867900152155520573e+03 2.869514983450837008e+03 2.844665955845719509e+03 2.858710172166391658e+03 2.812209562643814024e+03 2.837722422015181110e+03 2.772181585902757888e+03 2.806369366359755986e+03 2.727618064152788065e+03 2.765592298462469444e+03 2.682519842487884944e+03 2.717368741817646423e+03 2.641132279294525688e+03 2.664601700266133321e+03 2.607093541232319239e+03 2.611017416653035980e+03 2.582704797817924373e+03 2.560967066964694368e+03 2.568580132399469221e+03 2.518985308104161049e+03 2.563820188703635267e+03 2.489071708666208451e+03 2.566645562850868373e+03 2.473866686390073028e+03 2.575216575023861878e+03 2.474044562091433363e+03 2.588271481908931946e+03 2.488217101459566948e+03 2.605303616867394794e+03 2.513420470339880012e+03 2.626238089116093306e+03 2.545967889021049359e+03 2.650834262919714547e+03 2.582270493782916674e+03 2.678177541306990406e+03 2.619281466677360640e+03 2.706548922316305834e+03 2.654475627422337311e+03 2.733720902004235541e+03 2.685570841095415744e+03 2.757476965034902150e+03 2.710334142202084877e+03 2.776045562508872990e+03 2.726710278222803026e+03 2.788232550622238705e+03 2.733247032077978020e+03 2.793251435803530967e+03 2.729555624824479764e+03 2.790441069647300537e+03 2.716489575116479045e+03 2.779108252298522530e+03 2.695874688568389047e+03 2.758620471617540716e+03 2.669867757165884541e+03 2.728685237265487558e+03 2.640206076301164103e+03 2.689611118807747516e+03 2.607634050525441580e+03 2.642334916754263304e+03 2.571667524368835984e+03 2.588113907819588803e+03 2.530680059124109903e+03 2.527945948990012312e+03 2.482183382135704960e+03 2.461917778368872860e+03 2.423197963301722211e+03 2.388791609262118072e+03 2.350807149748431129e+03 2.306338718015702852e+03 2.263429577985231390e+03 2.213261900796675491e+03 2.163000000000000000e+03
2.918000000000000000e+03 2.881861252764770597e+03 2.875560668766758226e+03 2.837210974362810703e+03 2.858641957355428985e+03 2.813555099071760196e+03 2.853443820961008441e+03 2.804538305590047457e+03 2.854756699832730192e+03 2.806023446644571777e+03 2.859699258255945551e+03 2.814289252802298506e+03 2.866604309491135155e+03 2.826187774756142517e+03 2.874403310230515672e+03 2.839436541822253275e+03 2.882108927529554421e+03 2.852581155818682873e+03 2.888424585993859637e+03 2.864585885732602037e+03 2.891565556342316086e+03 2.874287107566236045e+03 2.889351753216497855e+03 2.880033064547269078e+03 2.879568364617644875e+03 2.879716505403014253e+03 2.860508633768696654e+03 2.871177436442798808e+03 2.831544542138131419e+03 2.852760408307431135e+03 2.793545176561035532e+03 2.823766719201932119e+03 2.748989537855972230e+03 2.784655333510873788e+03 2.701691180799210088e+03 2.737021160010485801e+03 2.656152035301733576e+03 2.683483225988124559e+03 2.616678508687430622e+03 2.627576508431057391e+03 2.586498426317493795e+03 2.573605038313211480e+03 2.567163788814816144e+03 2.526309642962196449e+03 2.558461082745899603e+03 2.490241850594890366e+03 2.558870368971249263e+03 2.468915651132143466e+03 2.566380895155496546e+03 2.464012119265104502e+03 2.579300605294999514e+03 2.474984026342618108e+03 2.596693744905361655e+03 2.499270367470597648e+03 2.618267934840003818e+03 2.533044607137334879e+03 2.643822567426012029e+03 2.572154662661830571e+03 2.672604271028337280e+03 2.612838306688812281e+03 2.702952859756603630e+03 2.651969189635977727e+03 2.732437379735355989e+03 2.686897200078043170e+03 2.758390553736592210e+03 2.715188781299199491e+03 2.778532027225235652e+03 2.734591391523515540e+03 2.791353321967339525e+03 2.743341201039094813e+03 2.796113410899333303e+03 2.740654392772744814e+03 2.792537882797018938e+03 2.727078702468472784e+03 2.780472539998121647e+03 2.704432193593125248e+03 2.759727598627915086e+03 2.675275633586792082e+03 2.730187521900097636e+03 2.642108159178502319e+03 2.692066032016000008e+03 2.606598870491840444e+03 2.646078269730013290e+03 2.569113977453474945e+03 2.593338377141612000e+03 2.528626702272838884e+03 2.534935187488879819e+03 2.482926672160615453e+03 2.471307686014670253e+03 2.428988199833040198e+03 2.401687318126036189e+03 2.363481115580512324e+03 2.324063004410594203e+03 2.283809613654386339e+03 2.236607700695726635e+03 2.190928059733917053e+03 2.142000000000000000e+03
2.956000000000000000e+03 2.935280265926683569e+03 2.897789620140984880e+03 2.901747665875944222e+03 2.857658115805786565e+03 2.883803010293017451e+03 2.836444905647002543e+03 2.876070175789019231e+03 2.829555045965209956e+03 2.874414083444037715e+03 2.832500168829257291e+03 2.876377683848347260e+03 2.841248421053965558e+03 2.880555646815239015e+03 2.852631710922034017e+03 2.885955541135221665e+03 2.864525790512512231e+03 2.891443691907788889e+03 2.875605013826744653e+03 2.895386313904493363e+03 2.884791334531238590e+03 2.895580311548254031e+03 2.890717166321077002e+03 2.889507252761416566e+03 2.891507076664173837e+03 2.874855100188195593e+03 2.884988382892772734e+03 2.850163845419898735e+03 2.869201284179423510e+03 2.815398367183371647e+03 2.842943642349779566e+03 2.772256884658965191e+03 2.806123229174254448e+03 2.724084320397667852e+03 2.759852067485594944e+03 2.675359675156038975e+03 2.706373967135784369e+03 2.630847108876160746e+03 2.648951990191322238e+03 2.594620167647430208e+03 2.591742934902404613e+03 2.569248554267253894e+03 2.539550129585336435e+03 2.555424754431895508e+03 2.497308843768249972e+03 2.552172704395914934e+03 2.469281454697173103e+03 2.557552923808068499e+03 2.458154497297203761e+03 2.569555839367961653e+03 2.464384085254657293e+03 2.586778410374375653e+03 2.486100594400450063e+03 2.608581068580628653e+03 2.519648138122546698e+03 2.634690093393799543e+03 2.560526918341657165e+03 2.664508205448702483e+03 2.604316646370136368e+03 2.696552739940942956e+03 2.647212937820064326e+03 2.728358567066532942e+03 2.686075668675667657e+03 2.756908741994180673e+03 2.718194412508948062e+03 2.779357212328843161e+03 2.741120854716759368e+03 2.793663550242999008e+03 2.752814970503446602e+03 2.798843733665087711e+03 2.752084031453664011e+03 2.794783659545844785e+03 2.739047633487398798e+03 2.781805913278828029e+03 2.715296241062255376e+03 2.760283292336384875e+03 2.683557031890512008e+03 2.730509331759705674e+03 2.646937990088434617e+03 2.692835025477193085e+03 2.608030497732162530e+03 2.647893973120175360e+03 2.568196701307441799e+03 2.596675406227039275e+03 2.527243495194004481e+03 2.540288893905847544e+03 2.483484952301851081e+03 2.479432200886191822e+03 2.434050328828448528e+03 2.413740812666879265e+03 2.375302804454596298e+03 2.341349951118143963e+03 2.303466337169562394e+03 2.259305261172168230e+03 2.216325699690140482e+03 2.167016111141986585e+03 2.122000000000000000e+03
3.011000000000000000e+03 2.967933635719475660e+03 2.952263494890078164e+03 2.909085564532699209e+03 2.919631519296068291e+03 2.874160795249042621e+03 2.901586167171422858e+03 2.857527136653613979e+03 2.892570449404066949e+03 2.854113897128587269e+03 2.889092540568036839e+03 2.859098230609531583e+03 2.889161093181071919e+03 2.868394713963271897e+03 2.891615519641913124e+03 2.879050345846863365e+03 2.895444686429609192e+03 2.889229672330092399e+03 2.899247798396044800e+03 2.897764913002037247e+03 2.900971982992169160e+03 2.903525192481939484e+03 2.898004743171421069e+03 2.904961589611612453e+03 2.887609188159940913e+03 2.900067402156296339e+03 2.867586458628461060e+03 2.886748700751619708e+03 2.836968761844549590e+03 2.863388595051945686e+03 2.796521231508726487e+03 2.829332352285353409e+03 2.748872202599383400e+03 2.785130877793917989e+03 2.698185835590773422e+03 2.732556621428652306e+03 2.649415272603864651e+03 2.674511588082016260e+03 2.607305194769497120e+03 2.614910095514195746e+03 2.575417964885558376e+03 2.558487838662115792e+03 2.555490765303179614e+03 2.510394424270446507e+03 2.547349388041752718e+03 2.475476356702446992e+03 2.549407454983846037e+03 2.457345661368419769e+03 2.559535547671449876e+03 2.457532889829943088e+03 2.575910154196521489e+03 2.475087026955774945e+03 2.597453744072524387e+03 2.506833542530332124e+03 2.623680120097543295e+03 2.548201591166901380e+03 2.654073770794436768e+03 2.594257556918633327e+03 2.687388002182127821e+03 2.640508707964812857e+03 2.721290970919178562e+03 2.683219621666286002e+03 2.752588256323934274e+03 2.719301076737446692e+03 2.777923229622051167e+03 2.746079175168179063e+03 2.794598179760270796e+03 2.761274652181426973e+03 2.801116641123187037e+03 2.763318319580985644e+03 2.797229011140289913e+03 2.751846136037779615e+03 2.783545932648416510e+03 2.728043881562771276e+03 2.760997391021127441e+03 2.694551316063362719e+03 2.730445988260611557e+03 2.654855097997581652e+03 2.692611644176184654e+03 2.612360281976254100e+03 2.648238679287516788e+03 2.569479704267262150e+03 2.598275972974584874e+03 2.527043389600469254e+03 2.543833189639395641e+03 2.484146393965976131e+03 2.485805282374030412e+03 2.438345537773447631e+03 2.424234251932722600e+03 2.386007312005054246e+03 2.357619543024206450e+03 2.322664413885281192e+03 2.282497712411380235e+03 2.243473694937198616e+03 2.193758843139752571e+03 2.143959344714623512e+03 2.084000000000000000e+03
3.039000000000000000e+03 3.008326561318698168e+03 2.966228463781336359e+03 2.960191663315837559e+03 2.916604786072631214e+03 2.930527432253441475e+03 2.889015687452326347e+03 2.913369765061183443e+03 2.878225417426351214e+03 2.904067294069500349e+03 2.878795377161281976e+03 2.899792889251076758e+03 2.885777100012774099e+03 2.898993735670849219e+03 2.895296125719459269e+03 2.900651665773505101e+03 2.904799297951562949e+03 2.903592183847659726e+03 2.912802439621166286e+03 2.906023357655597920e+03 2.918274785371097096e+03 2.905430272776412949e+03 2.920007313571374198e+03 2.898864000824445156e+03 2.916303980255140686e+03 2.883553337455672136e+03 2.905132573359225717e+03 2.857662758260880764e+03 2.884616562150004029e+03 2.820960676334736945e+03 2.853598956068565258e+03 2.775173657307538178e+03 2.812038209506624753e+03 2.723881794912415444e+03 2.761154122478647878e+03 2.671934241499212931e+03 2.703396045436620170e+03 2.624503331731301387e+03 2.642341588529913224e+03 2.586020473866310112e+03 2.582540638014086198e+03 2.559307181064995348e+03 2.529197153942710884e+03 2.545185480731738608e+03 2.487560266319465427e+03 2.542702040319805747e+03 2.462029599923753722e+03 2.549864669395951751e+03 2.455194351061802081e+03 2.564564866222804540e+03 2.467168982904197946e+03 2.585264922555497833e+03 2.495536533927975142e+03 2.611136572977401102e+03 2.535960874260259970e+03 2.641619967565028219e+03 2.583215269044176694e+03 2.675687263504295515e+03 2.632187407255489234e+03 2.711264604431721182e+03 2.678482787011875189e+03 2.745181959802479469e+03 2.718522549400796379e+03 2.773725195172270105e+03 2.749341069743696607e+03 2.793532368443935411e+03 2.768434640008533734e+03 2.802399836920526468e+03 2.773912067625899908e+03 2.799634892353679788e+03 2.764932500872069340e+03 2.785852170771030160e+03 2.742165999562447723e+03 2.762400394053911441e+03 2.707935341068246089e+03 2.730761322685067626e+03 2.665834115471588120e+03 2.692210077336585982e+03 2.619878334292426644e+03 2.647815335962483914e+03 2.573480706183517668e+03 2.598627185711009133e+03 2.528608311023856913e+03 2.545786530478640088e+03 2.485365776665495105e+03 2.490343325801938590e+03 2.442019729849876967e+03 2.432733249218994843e+03 2.395280907011277577e+03 2.372021501071058992e+03 2.340581463558770338e+03 2.305090558969214726e+03 2.272118308887393141e+03 2.225898992956601887e+03 2.182525310208730389e+03 2.125082255531668579e+03 2.064000000000000000e+03
3.075000000000000000e+03 3.028619845691141109e+03 3.005008765979548571e+03 2.962502038057670688e+03 2.962065926898906127e+03 2.922866931210384337e+03 2.935857992463008031e+03 2.903719991745974767e+03 2.920343322078759229e+03 2.899174855499905334e+03 2.911634943809802280e+03 2.903550126667454151e+03 2.907540092655782701e+03 2.912045180932332642e+03 2.906839297275429544e+03 2.921233186569557802e+03 2.908492778333984461e+03 2.929072534453245225e+03 2.910999560227772690e+03 2.934421162541557351e+03 2.912081182457014620e+03 2.936326009197116491e+03 2.908781244426777448e+03 2.933473994203766779e+03 2.897962321457912367e+03 2.924074028794218520e+03 2.877062007920627821e+03 2.906184555933336924e+03 2.844878729241445399e+03 2.878275332808730127e+03 2.802132976508357842e+03 2.839744565653331847e+03 2.751603304746528011e+03 2.791215130069434508e+03 2.697751673521485372e+03 2.734604099422761010e+03 2.645897327046202008e+03 2.673061957616875134e+03 2.601138593000031506e+03 2.610844584347124055e+03 2.567321477543145647e+03 2.553063900065209964e+03 2.546371331218370415e+03 2.505188493817946892e+03 2.538207136430699393e+03 2.472231039921293814e+03 2.541254447973135484e+03 2.457750173624455329e+03 2.553329566452816380e+03 2.462986439159820293e+03 2.572495924607266716e+03 2.486496394875652641e+03 2.597497662520698668e+03 2.524480495498814435e+03 2.627582956658787225e+03 2.571692688029680085e+03 2.661853849754204020e+03 2.622549890527849129e+03 2.698547236247791716e+03 2.671996638510192042e+03 2.734702390283435761e+03 2.715867759294008010e+03 2.766463329271237853e+03 2.750810680152576424e+03 2.789915476848918843e+03 2.774074395970648766e+03 2.802068050827854677e+03 2.783494220955819401e+03 2.801527125211098792e+03 2.777802185206003742e+03 2.788583831309099423e+03 2.757113710116053880e+03 2.764752259545677134e+03 2.723261528487042142e+03 2.732053524582468071e+03 2.679674285193749256e+03 2.692416987722789600e+03 2.630709596049569882e+03 2.647431618946077378e+03 2.580623640628925386e+03 2.598427971439493376e+03 2.532535513476927008e+03 2.546662001866179708e+03 2.487728024458107939e+03 2.493321947011798784e+03 2.445435808448580701e+03 2.439191233846027444e+03 2.403022363139714344e+03 2.383973044976739402e+03 2.356266597797749455e+03 2.325383272225620203e+03 2.299397078728827182e+03 2.258026868437927533e+03 2.224367858496640110e+03 2.171555990362629018e+03 2.118028086974932194e+03 2.045000000000000000e+03
3.093000000000000000e+03 3.053193759422894345e+03 3.010395297453708281e+03 2.995412676145797377e+03 2.957798685889103126e+03 2.959061873325487795e+03 2.929371573485303998e+03 2.936842145870857621e+03 2.918965370551095020e+03 2.923634439308679248e+03 2.920336540909533142e+03 2.916363841261824746e+03 2.927843616786930397e+03 2.913382281624367351e+03 2.937115870483104118e+03 2.913629060729501361e+03 2.945344389573349417e+03 2.915845550398898922e+03 2.951023022574974675e+03 2.918057603380177625e+03 2.953278312564736098e+03 2.917464515354852210e+03 2.951155086438362559e+03 2.910771165594941522e+03 2.943224548355125989e+03 2.894875661986031901e+03 2.927675307616621922e+03 2.867710046893071649e+03 2.902781225003864165e+03 2.828969485974506824e+03 2.867478174716340163e+03 2.780484152573003939e+03 2.821801664928942046e+03 2.726083956406034758e+03 2.767086978805695708e+03 2.670949307090269940e+03 2.705980934709950816e+03 2.620592796071014618e+03 2.642349386518866140e+03 2.579739595438177730e+03 2.581081628589304273e+03 2.551430571420227352e+03 2.527690921795735449e+03 2.536627050433811746e+03 2.487609811218313098e+03 2.534438741446847871e+03 2.465220745077082029e+03 2.542863439070250479e+03 2.462868401214796449e+03 2.559708772756594499e+03 2.480222872972536152e+03 2.583274596954996468e+03 2.514290015111874254e+03 2.612482943762868672e+03 2.560104773168465272e+03 2.646425361491219974e+03 2.611832601748532852e+03 2.683618826493740016e+03 2.663829661325999950e+03 2.721438980212662045e+03 2.711286425666961350e+03 2.756118463089991110e+03 2.750356776231935328e+03 2.783395006937810649e+03 2.777978532176962290e+03 2.799541050816732422e+03 2.791732215934668602e+03 2.802304387013798987e+03 2.789987073191060063e+03 2.791343954461499834e+03 2.772325806510456005e+03 2.768013020482502270e+03 2.739991816410670253e+03 2.734666205829773844e+03 2.696015556554431896e+03 2.693868967244943633e+03 2.644798804452934291e+03 2.647867058320794058e+03 2.591196055431532841e+03 2.598458922016495308e+03 2.539383096384192413e+03 2.547146194772563831e+03 2.491902070522226040e+03 2.495277325782553817e+03 2.449165959152851883e+03 2.443923340951601858e+03 2.409459132462615344e+03 2.393380998580636515e+03 2.369220069085474279e+03 2.342350725471835631e+03 2.323232881084892142e+03 2.286836686534354158e+03 2.264219414148281430e+03 2.218466962214159594e+03 2.180813656650197572e+03 2.120758341436623141e+03 2.052000000000000000e+03
3.102000000000000000e+03 3.058426984951545819e+03 3.029803625053708402e+03 2.992491075616378566e+03 2.982073892671009617e+03 2.953927758046828330e+03 2.952486315719870618e+03 2.936895885171298687e+03 2.934650024372503594e+03 2.934750700330318523e+03 2.924381274385781126e+03 2.941158968372105846e+03 2.919369690371059733e+03 2.950839604796185085e+03 2.918342783904160115e+03 2.960083027760967980e+03 2.920175272069486255e+03 2.966772405181716294e+03 2.923194695738615792e+03 2.969871976237172476e+03 2.924859655096041479e+03 2.968657196596178892e+03 2.921897210306126453e+03 2.962092758912519457e+03 2.910866675291512820e+03 2.948651041876710224e+03 2.888989600166410582e+03 2.926601711238921325e+03 2.854992201696797110e+03 2.894567485344443412e+03 2.809686604875392732e+03 2.852064753405204556e+03 2.756083665566465697e+03 2.799842436781473225e+03 2.698961952403628402e+03 2.739994883983477848e+03 2.643974789715867246e+03 2.675921792514759090e+03 2.596518622216956373e+03 2.612179490583817369e+03 2.560673874485177294e+03 2.554167402882404531e+03 2.538530386112875476e+03 2.507540886450928610e+03 2.530102954500623127e+03 2.477321326421902995e+03 2.533841447393964700e+03 2.466862364218643052e+03 2.547506351000620725e+03 2.477004471878208733e+03 2.569016385742801049e+03 2.505771195465920755e+03 2.596878452090975316e+03 2.548776759321482587e+03 2.630013023438071286e+03 2.600207224311707250e+03 2.667110337088404776e+03 2.653980768279533550e+03 2.705924956875816406e+03 2.704645565898804762e+03 2.742974330935612215e+03 2.747768389554370970e+03 2.773902694726815298e+03 2.779880507737684184e+03 2.794414539016096569e+03 2.798282868818437692e+03 2.801373949674426967e+03 2.801031854863334956e+03 2.793577170220802600e+03 2.787235742409400245e+03 2.771875945527005570e+03 2.757522395630829124e+03 2.738655518918551024e+03 2.714357256994012459e+03 2.696971846700117112e+03 2.661902747546381306e+03 2.649767927800929556e+03 2.605309824048584233e+03 2.599468379379331054e+03 2.549610309075790610e+03 2.547981114037460884e+03 2.498579460754377578e+03 2.496885035637445526e+03 2.453946861658055241e+03 2.447495186902321620e+03 2.415145354469383165e+03 2.400593552569080657e+03 2.379510299231087174e+03 2.355791230477011595e+03 2.342613613480063577e+03 2.310593003904348734e+03 2.298288993935005237e+03 2.259124822830527137e+03 2.237703495091445347e+03 2.189781940387771556e+03 2.145216623795226951e+03 2.075000000000000000e+03
3.108000000000000000e+03 3.065366033847647486e+03 3.025895071220700174e+03 3.004131370991559379e+03 2.976173848583836843e+03 2.966256838295946181e+03 2.951763962411939247e+03 2.943554838310138166e+03 2.945515305162913592e+03 2.930452159261894394e+03 2.950541579405532502e+03 2.923744449089679165e+03 2.960781579964200318e+03 2.921749027102615855e+03 2.971603478905835800e+03 2.923331408363204446e+03 2.980093004467831179e+03 2.927063421348475458e+03 2.984790281170066919e+03 2.930705974174970834e+03 2.984990254981107228e+03 2.931141647905835725e+03 2.979978740140802074e+03 2.924776484851933219e+03 2.968588357344410269e+03 2.908300942811365530e+03 2.949250765909466736e+03 2.879584710813573565e+03 2.920447522106364886e+03 2.838423957242014694e+03 2.881292690511535056e+03 2.786890100837485534e+03 2.831994199621225107e+03 2.729139514304713884e+03 2.774084307500378145e+03 2.670698145259448665e+03 2.710450820024106179e+03 2.617389095654593348e+03 2.645235025656326798e+03 2.574184666927831586e+03 2.583589409539635199e+03 2.544304337055975793e+03 2.531205090978275166e+03 2.528822844318757689e+03 2.493535399532689098e+03 2.526895266873425498e+03 2.474787258183877839e+03 2.536484142088965200e+03 2.476944315108497904e+03 2.555267088392859932e+03 2.499185719277685621e+03 2.581314711867785263e+03 2.537973129297004562e+03 2.613230356991435201e+03 2.587814128235507269e+03 2.649717554140170250e+03 2.642410898099154110e+03 2.688859905639611952e+03 2.695746515609734161e+03 2.727581488238944075e+03 2.742746727178022411e+03 2.761683715374004805e+03 2.779429890910339964e+03 2.786554583339355304e+03 2.802748956759219709e+03 2.798284076316084793e+03 2.810460667888603894e+03 2.794697194544630293e+03 2.801263108378559537e+03 2.775851601000576011e+03 2.775198404454592037e+03 2.743813000864317928e+03 2.734077737649125993e+03 2.701868668879709730e+03 2.681591000780106697e+03 2.653580483376213579e+03 2.622868550538562431e+03 2.602089178898178488e+03 2.563514828477750143e+03 2.549870606620802846e+03 2.508397903760700046e+03 2.498850875196238121e+03 2.460606025728374789e+03 2.450589367037340708e+03 2.420895845544494478e+03 2.406237473670595136e+03 2.387705158846565610e+03 2.366136673988917664e+03 2.357525534588890878e+03 2.329093850982469576e+03 2.325255904664002173e+03 2.291433593762200871e+03 2.284124740990453574e+03 2.245874333644744183e+03 2.224990218656052548e+03 2.180873306504496213e+03 2.138000000000000000e+03
3.102000000000000000e+03 3.057359073157806051e+03 3.024639536219934143e+03 2.994946727899836333e+03 2.977162558491482741e+03 2.962434799767988352e+03 2.949263360977869979e+03 2.951521057271022073e+03 2.933467511675029073e+03 2.954754286096404030e+03 2.925426973439281028e+03 2.965483155934135084e+03 2.922864834041654831e+03 2.978260843970291717e+03 2.924490126519238856e+03 2.989298349403936754e+03 2.929031021435938783e+03 2.996487214749224222e+03 2.934546007772787107e+03 2.998887122623822506e+03 2.938157386495291576e+03 2.995938429211743824e+03 2.936271005537503243e+03 2.986813272677903115e+03 2.925223753465181289e+03 2.970209786494519903e+03 2.902173301769514637e+03 2.944627455218444538e+03 2.865959174859619452e+03 2.908919860123165108e+03 2.817658038750351807e+03 2.862841004655129836e+03 2.760637161437686700e+03 2.807393503989214878e+03 2.700052353185790253e+03 2.744945691376122340e+03 2.641895982604755318e+03 2.679179133639411248e+03 2.591833442081166140e+03 2.614902848535594330e+03 2.554138608436257073e+03 2.557682083718153990e+03 2.531025808024321123e+03 2.513191910254236973e+03 2.522566349234808513e+03 2.486292737274729461e+03 2.527186622851545962e+03 2.480005078977024823e+03 2.542525985393367591e+03 2.494714892624388540e+03 2.566276275729142071e+03 2.527942664556930595e+03 2.596623837945444393e+03 2.574818440562793512e+03 2.632105507998928715e+03 2.629106103247246665e+03 2.671002637695179601e+03 2.684381901401715368e+03 2.710669802170300045e+03 2.734940448250418740e+03 2.747262499530327659e+03 2.776197504465971178e+03 2.776134861387231012e+03 2.804659558637250029e+03 2.792823596717002602e+03 2.817750272500424671e+03 2.794214914247285378e+03 2.813799567432352433e+03 2.779381736729089425e+03 2.792321785542839280e+03 2.749733739897185387e+03 2.754455297923361741e+03 2.708454041898129162e+03 2.703257574648054742e+03 2.659524299751920807e+03 2.643548218375467968e+03 2.606790424060569876e+03 2.581175199448161038e+03 2.553421305724042213e+03 2.521856030948065381e+03 2.501836074251557875e+03 2.469966622952195394e+03 2.453896964320077132e+03 2.427687063169083103e+03 2.411047221995982909e+03 2.394739154997491369e+03 2.374158184203297878e+03 2.368663928525302708e+03 2.343041412233547817e+03 2.345345310403976782e+03 2.315735891527333479e+03 2.319402817901206163e+03 2.287739925558598770e+03 2.284249988450650562e+03 2.251671102209359105e+03 2.233130140606765508e+03 2.203000000000000000e+03
3.090000000000000000e+03 3.043528576535882621e+03 3.009054169036050098e+03 2.984063005982476625e+03 2.967721256438667297e+03 2.950652567183266456e+03 2.951796083761128102e+03 2.932363387931021407e+03 2.952835226725179382e+03 2.923391509654790298e+03 2.963793097058284729e+03 2.920719182396992437e+03 2.978642097098102568e+03 2.922776623247152656e+03 2.992787136540203392e+03 2.928356848754528528e+03 3.003342623639186058e+03 2.935784062199697019e+03 3.008890703175127783e+03 2.942465178982728958e+03 3.008798092819718931e+03 2.944922531412699300e+03 3.002459876971671747e+03 2.939298873800111778e+03 2.988859938395950849e+03 2.922194581769431807e+03 2.966627799521521865e+03 2.891590100178570083e+03 2.934492487589341181e+03 2.847567508034979710e+03 2.891862535552937516e+03 2.792593627203418237e+03 2.839276436433447088e+03 2.731249258120470131e+03 2.778612926462399628e+03 2.669445173292827349e+03 2.713091518865268881e+03 2.613310358511982031e+03 2.647128197267339146e+03 2.568035412645756878e+03 2.586042912175267702e+03 2.536978799968144813e+03 2.535541182932513493e+03 2.521280724873989129e+03 2.500914801886241548e+03 2.520079827339010990e+03 2.486047968452659461e+03 2.531221865109228474e+03 2.492492631064755642e+03 2.552155290950650851e+03 2.518959224257293045e+03 2.580619617766840292e+03 2.561468869276839087e+03 2.614821793736764903e+03 2.614154957619143715e+03 2.653055066079183689e+03 2.670420614502153512e+03 2.693026942889626298e+03 2.724020063773128186e+03 2.731352187685984518e+03 2.769723153839870520e+03 2.763608848060974196e+03 2.803486251748909126e+03 2.785067193926228811e+03 2.822324676843461475e+03 2.791838946492478044e+03 2.824201377908674203e+03 2.781957116210261120e+03 2.808158418639033698e+03 2.755912071805853429e+03 2.774691924601111623e+03 2.716425342490984804e+03 2.726145415044538822e+03 2.667600565331561484e+03 2.666797856814141142e+03 2.613860154891390266e+03 2.602410092222301500e+03 2.559115871465628516e+03 2.539231700001344052e+03 2.506422411095751613e+03 2.482740553754154462e+03 2.458057093193067885e+03 2.436539045440034897e+03 2.415744741333392085e+03 2.401770295831166095e+03 2.380724794929441941e+03 2.377174662529249417e+03 2.353513075675558412e+03 2.359620893029386480e+03 2.333410855565857219e+03 2.344771508204122256e+03 2.317934539492568547e+03 2.327556855970465676e+03 2.302354318389684067e+03 2.302194297295744036e+03 2.278580892204969132e+03 2.256000000000000000e+03
3.056000000000000000e+03 3.015618991549097245e+03 2.984927599939250740e+03 2.965997213756881592e+03 2.946321990298137734e+03 2.945350510537572518e+03 2.926045376470330211e+03 2.944066606677539312e+03 2.916678920342348192e+03 2.954939664179305964e+03 2.914419364528554524e+03 2.971720170287123437e+03 2.917360319714854086e+03 2.989241034284772013e+03 2.924293091919204926e+03 3.003855628667978635e+03 2.933771145118153981e+03 3.013500528279081209e+03 2.943508026594884541e+03 3.017230162145485792e+03 2.950229785314934361e+03 3.014474521271556114e+03 2.950021502296176550e+03 3.004432982980390079e+03 2.939076501315228143e+03 2.985906579941512973e+03 2.914633864093149441e+03 2.957599710497516298e+03 2.875822738012539048e+03 2.918678382165438506e+03 2.824148917367960621e+03 2.869295904778855402e+03 2.763456768190743787e+03 2.810896662411358193e+03 2.699344970270291924e+03 2.746273508634453265e+03 2.638163637420897885e+03 2.679450879377563524e+03 2.585835392336547102e+03 2.615440668824316162e+03 2.546798208634188541e+03 2.559830507834225045e+03 2.523346852879597463e+03 2.518127163292839214e+03 2.515545581645154925e+03 2.494860244017880632e+03 2.521709016852540117e+03 2.492619743540700711e+03 2.539244681544892956e+03 2.511340082357429310e+03 2.565498870076993626e+03 2.548136805123102022e+03 2.598236717271116504e+03 2.597816462346701428e+03 2.635560256509673764e+03 2.653899209763779709e+03 2.675367352652113823e+03 2.709775829493702986e+03 2.714726532678976582e+03 2.759599101483743198e+03 2.749623235220013157e+03 2.798697713077789558e+03 2.775357347351408407e+03 2.823580469719737721e+03 2.787527571141101362e+03 2.831799204582885977e+03 2.783214032249627053e+03 2.821951613135805474e+03 2.761843336595140499e+03 2.793941829439868798e+03 2.725356550636095108e+03 2.749383954072882261e+03 2.677626173371561435e+03 2.691864247200637237e+03 2.623410109516811644e+03 2.626765443545731159e+03 2.567307881963811269e+03 2.560519764424595451e+03 2.513107949723658749e+03 2.499424584643400522e+03 2.463644189393284250e+03 2.448388117321547725e+03 2.420987794058873988e+03 2.410035852673466252e+03 2.386661801112031753e+03 2.384456658499420882e+03 2.361637571670558373e+03 2.369585972368423882e+03 2.346071818336102297e+03 2.361973949863061534e+03 2.338922973912035104e+03 2.357595236327600560e+03 2.337658812681298059e+03 2.352475429517945486e+03 2.338414284112133828e+03 2.343963465686512791e+03 2.341000000000000000e+03
3.007000000000000000e+03 2.975621013094801128e+03 2.954514042647265796e+03 2.934158097724965955e+03 2.930876012041515423e+03 2.913219385607754703e+03 2.927839740301130405e+03 2.904346101220270157e+03 2.938509751065826549e+03 2.903165438335932777e+03 2.956934949747892915e+03 2.907510680654200769e+03 2.977784588387756685e+03 2.916164321615935933e+03 2.996841770603362420e+03 2.927889940128598937e+03 3.011358479580427229e+03 2.940723988044403086e+03 3.019887822768738260e+03 2.951666500905582325e+03 3.021679083570334569e+03 2.956862946186028694e+03 3.016004545152514311e+03 2.952240061195632279e+03 3.001800757539162078e+03 2.934420619837942922e+03 2.977790463290231855e+03 2.901649744413407007e+03 2.942969072151560340e+03 2.854453239352666969e+03 2.897172359860584493e+03 2.795820824897217790e+03 2.841469210847389149e+03 2.730837634767010968e+03 2.778282250894642857e+03 2.665833930095305732e+03 2.711289234653901531e+03 2.607247593675694588e+03 2.645193743967507544e+03 2.560471239832580522e+03 2.585381118160721144e+03 2.528969835927493477e+03 2.537394170539798779e+03 2.513894826169273074e+03 2.506176457614441006e+03 2.514285533215962914e+03 2.495159413212150866e+03 2.527759641451631978e+03 2.505433528703305001e+03 2.551409219845626922e+03 2.535318770226869219e+03 2.582524057849023848e+03 2.580554944366351720e+03 2.618835977399776766e+03 2.635093563975293819e+03 2.658218549541716584e+03 2.692215062643523652e+03 2.698080890830885437e+03 2.745571739822397376e+03 2.734891344276978998e+03 2.789844421996468100e+03 2.764227840262532482e+03 2.820943501659144204e+03 2.781482212917670040e+03 2.835931114461502602e+03 2.782990009114819713e+03 2.832947637238471998e+03 2.767110699077403297e+03 2.811346312821924585e+03 2.734778540864699607e+03 2.772037654140619907e+03 2.689283013776700955e+03 2.717840000940138452e+03 2.635393231667520467e+03 2.653535828788700201e+03 2.578225270611512315e+03 2.585404113484076333e+03 2.522315741851100483e+03 2.520218133008030236e+03 2.471185710506025316e+03 2.463964503531828541e+03 2.427376829436148000e+03 2.420708379290798348e+03 2.392705338842662513e+03 2.391996426681152116e+03 2.368440488802524669e+03 2.376965444966181622e+03 2.355262406555535108e+03 2.373041205749437268e+03 2.353064886126855072e+03 2.376926625714345391e+03 2.360798034202391136e+03 2.385548560488236944e+03 2.376499356300932959e+03 2.396677351272039232e+03 2.397687726716373618e+03 2.411000000000000000e+03
2.959000000000000000e+03 2.930112180430599892e+03 2.910952282469716010e+03 2.906350103802630201e+03 2.892151382142234979e+03 2.903438201415550338e+03 2.885370703718906043e+03 2.914338005198333576e+03 2.886221716937840938e+03 2.934181264755693519e+03 2.892610679441846969e+03 2.958071101149233527e+03 2.903411774785252419e+03 2.981593065973901503e+03 2.917618684789671079e+03 3.001439711061326761e+03 2.933615473033339185e+03 3.015579433242990490e+03 2.948741710564171626e+03 3.022892505813202661e+03 2.959312253583214442e+03 3.022545317836701997e+03 2.961120833236138424e+03 3.013508912898550079e+03 2.950301060430242615e+03 2.994504460528520667e+03 2.924299425404980866e+03 2.964381348226984301e+03 2.882673952431621274e+03 2.922692469997659373e+03 2.827480254982428050e+03 2.870168498126699433e+03 2.763121614988332567e+03 2.808913029373708014e+03 2.695680262502994537e+03 2.742323753595411290e+03 2.631874600637415369e+03 2.674849403151053593e+03 2.577877484446013113e+03 2.611662922350192275e+03 2.538270764689163116e+03 2.558230844283351871e+03 2.515390533151522504e+03 2.519704790818388119e+03 2.509226668974804852e+03 2.500125384453051538e+03 2.517882766566985083e+03 2.501581384955080011e+03 2.538411599612023110e+03 2.523597924662092737e+03 2.567688445015383422e+03 2.563026888899664755e+03 2.602958773650821513e+03 2.614547485975245309e+03 2.641848761066591123e+03 2.671632170486715495e+03 2.681911404070151093e+03 2.727636928292499761e+03 2.720053628782404758e+03 2.776655758749056076e+03 2.752286234944551325e+03 2.813948206586158904e+03 2.774085617673772049e+03 2.835997702858286630e+03 2.781328751553258826e+03 2.840435410627628244e+03 2.771440431244498541e+03 2.826075094976921719e+03 2.744250335247822477e+03 2.793161404979866347e+03 2.702172183658487029e+03 2.743729310221604010e+03 2.649626802721037620e+03 2.681819026776126066e+03 2.591972260180256399e+03 2.613272575319997941e+03 2.534397639246552899e+03 2.544980103644767951e+03 2.481185130868337637e+03 2.483693680253312323e+03 2.435493491163132148e+03 2.434760971233406053e+03 2.399527749892494285e+03 2.401215744193558294e+03 2.374809643665287695e+03 2.383537172241406097e+03 2.362320548195878473e+03 2.380125090338715836e+03 2.362484420991025218e+03 2.388291529651954079e+03 2.375150075974674110e+03 2.405462992679109448e+03 2.399773990242688797e+03 2.430200017335296252e+03 2.435377583145998415e+03 2.460513377413378748e+03 2.470000000000000000e+03
2.867000000000000000e+03 2.867715844657203888e+03 2.867841702452724803e+03 2.860293886890392514e+03 2.869792130758196436e+03 2.858555762851940472e+03 2.882345144165362399e+03 2.862871371599203485e+03 2.903710041764014932e+03 2.872139922252526503e+03 2.930273950246719778e+03 2.885602609693295562e+03 2.957964024167752541e+03 2.902563981522743688e+03 2.983207963776912493e+03 2.921798636890418493e+03 3.003449594892653749e+03 2.941054444875179342e+03 3.017092788685738014e+03 2.956924340798046160e+03 3.023030701160049830e+03 2.965203031947276486e+03 3.020132292168002550e+03 2.961666101189727669e+03 3.007045300489890451e+03 2.943058374675343657e+03 2.982448216587620209e+03 2.908004744552310058e+03 2.945601555529459347e+03 2.857579206059898297e+03 2.896893598841625135e+03 2.795368082100161246e+03 2.838126377122411668e+03 2.726998341377322049e+03 2.772473578197493680e+03 2.659229439857298075e+03 2.704210606164487217e+03 2.598802991393793036e+03 2.638354933625947524e+03 2.551300351557341401e+03 2.580268415903983168e+03 2.520267751442344888e+03 2.535168208539212173e+03 2.506820342132974474e+03 2.507480078214202877e+03 2.509820516412699362e+03 2.500074283665534949e+03 2.526552702229910210e+03 2.513575835268756691e+03 2.553635169018651141e+03 2.546019381762977901e+03 2.587803587886963214e+03 2.593045602403261910e+03 2.626252045872632607e+03 2.648629519043839991e+03 2.666438099640295150e+03 2.706103540448648346e+03 2.705555040844635641e+03 2.759126446439654046e+03 2.740081226268454884e+03 2.802323299987402606e+03 2.765799702647353115e+03 2.831531136726635395e+03 2.778435638851389285e+03 2.843797763911383299e+03 2.774716444889982995e+03 2.837372194628964280e+03 2.753408870336123528e+03 2.811857193527989693e+03 2.715864108425392260e+03 2.768521839170476142e+03 2.665817102232202615e+03 2.710595068039604939e+03 2.608525854719702693e+03 2.643273683904116297e+03 2.549622053083940955e+03 2.573235146195007474e+03 2.494127404809731161e+03 2.507639830121116120e+03 2.445937903485283186e+03 2.452858243946124276e+03 2.407796439838085917e+03 2.413334005224868179e+03 2.381540902101648499e+03 2.390984184550458394e+03 2.368362868661805805e+03 2.385340971560288381e+03 2.368945556456147642e+03 2.394371580501448079e+03 2.383562294117816691e+03 2.415743047111451233e+03 2.412385539205189616e+03 2.448319774978250280e+03 2.456330814032011403e+03 2.493982764569111623e+03 2.519776624658234141e+03 2.567000000000000000e+03
2.811000000000000000e+03 2.813443415192032717e+03 2.815094394389225272e+03 2.825602700508968155e+03 2.822587074616549216e+03 2.842425390654327202e+03 2.832402929986295476e+03 2.865982182329667921e+03 2.845650867385777474e+03 2.894987516249511827e+03 2.862415892463924592e+03 2.926361665037017701e+03 2.882464625122999223e+03 2.956697913224746117e+03 2.905026381701717128e+03 2.983126437031517071e+03 2.928331029979319283e+03 3.003586875633704949e+03 2.949362059251920982e+03 3.016591600431683219e+03 2.964056470551219263e+03 3.020775378188355717e+03 2.967973246813974129e+03 3.014614025234000565e+03 2.957265488251189254e+03 2.996553757149714784e+03 2.929677513805984290e+03 2.965512735588791202e+03 2.885279292355000962e+03 2.921484363170636698e+03 2.826734996093921382e+03 2.865931950203078941e+03 2.759034472255363198e+03 2.801816387779012985e+03 2.688745789965318636e+03 2.733310676701747070e+03 2.622944936114929533e+03 2.665373065596093511e+03 2.568040613094390665e+03 2.603313309890520486e+03 2.528740294415476910e+03 2.552360849892625993e+03 2.507390677257638345e+03 2.517156481619354963e+03 2.503854313155911314e+03 2.501122446116158244e+03 2.515945729389845383e+03 2.505798042948591501e+03 2.540268049085572784e+03 2.530356185188151358e+03 2.573132092875677699e+03 2.571533786885398513e+03 2.611195517810759611e+03 2.624079197586906503e+03 2.651588987736464333e+03 2.681605914166114871e+03 2.691565649764138016e+03 2.737569782020281309e+03 2.727983751159493750e+03 2.786063986429441229e+03 2.757046357118061678e+03 2.822264610915221965e+03 2.774595573589678679e+03 2.842567217978456029e+03 2.776953740555444256e+03 2.844602299894731004e+03 2.761989753484809171e+03 2.827325960152457810e+03 2.729937390719158429e+03 2.791263612450740311e+03 2.683583730657234810e+03 2.738815474254986384e+03 2.627728968211790743e+03 2.674404368025358963e+03 2.568144529561365744e+03 2.604228617444600332e+03 2.510454373195566404e+03 2.535502717803547512e+03 2.459337004286547199e+03 2.475290509429232316e+03 2.418225909940354541e+03 2.429257750357596251e+03 2.389418928795166721e+03 2.400766881425852262e+03 2.374355748093073089e+03 2.390638404432025709e+03 2.373861941357111391e+03 2.397663549782522296e+03 2.388337602895125656e+03 2.419726409522418635e+03 2.418079253291970417e+03 2.455347387311572220e+03 2.464112000796026223e+03 2.505684261145706841e+03 2.530028804610548832e+03 2.576673103870433351e+03 2.620000000000000000e+03
2.729000000000000000e+03 2.752393784265933846e+03 2.769528411406395207e+03 2.776354745708005339e+03 2.794522988915482074e+03 2.794200880580406192e+03 2.821546136603205468e+03 2.812768401382144020e+03 2.853069031121051921e+03 2.833622606254963557e+03 2.887640587101657729e+03 2.857176747055890246e+03 2.922501607730774140e+03 2.883188082423192100e+03 2.954797945228177468e+03 2.910441425474105472e+03 2.982148499984227783e+03 2.936424721666168807e+03 3.002673985086826178e+03 2.957368580940522406e+03 3.014688513808689095e+03 2.968773829729683712e+03 3.016404325059653729e+03 2.966330900013579594e+03 3.005961933197042526e+03 2.946975071492258394e+03 2.981864647781138046e+03 2.909770674390771546e+03 2.943620171879163991e+03 2.856379337479789683e+03 2.892256663124857823e+03 2.790997489737265369e+03 2.830463707732123112e+03 2.719785038849533066e+03 2.762330565302462674e+03 2.649909772210017309e+03 2.692847782208637000e+03 2.588394599055311119e+03 2.627379506460874381e+03 2.540989392826319545e+03 2.571207347006239161e+03 2.511299262935363458e+03 2.529106061327996485e+03 2.500370228851524189e+03 2.504859495763393170e+03 2.506838919036581501e+03 2.500700793135340518e+03 2.527593597311326448e+03 2.516799439063796854e+03 2.558711860258948036e+03 2.551006793330762775e+03 2.596320279645200571e+03 2.599031888149051156e+03 2.637049924058306715e+03 2.655058155268036444e+03 2.677962192285510355e+03 2.712621834275058518e+03 2.716107784899708804e+03 2.765472371094104346e+03 2.748097726185943429e+03 2.808186878095758402e+03 2.770072664199128667e+03 2.836476496848502848e+03 2.778239012185880256e+03 2.847292161884844063e+03 2.769817503812822451e+03 2.838909155482576352e+03 2.744001514269201380e+03 2.811114722466843432e+03 2.702482526922896795e+03 2.765486496965756487e+03 2.649285735295665290e+03 2.705610451054300029e+03 2.589969105909714926e+03 2.637017920529237017e+03 2.530511397484084682e+03 2.566667608443213339e+03 2.476309995878114478e+03 2.501962341762131473e+03 2.431590706405482706e+03 2.449512196800145375e+03 2.399286011083826907e+03 2.414023207807625113e+03 2.381222732637234003e+03 2.397698788283512840e+03 2.378398339418313753e+03 2.400371209654688755e+03 2.391231539464993148e+03 2.420335513926323983e+03 2.419866400070534837e+03 2.455713129997934630e+03 2.464820690323390409e+03 2.506317352258828123e+03 2.528639315801100565e+03 2.576878734839727713e+03 2.621123681513271549e+03 2.689000000000000000e+03
2.678000000000000000e+03 2.703802646009743057e+03 2.720407392732357039e+03 2.739201379266328331e+03 2.748050841781894633e+03 2.771026618546120517e+03 2.773241655710110535e+03 2.805470864830155278e+03 2.799074868358719414e+03 2.842927807695059073e+03 2.826652271993742488e+03 2.881658069044596687e+03 2.856294592048096547e+03 2.919194348688172795e+03 2.887398123966150706e+03 2.953087516576049893e+03 2.918061933417624914e+03 2.981167663259042001e+03 2.944968041397827164e+03 3.001419720387354573e+03 2.963737900378393533e+03 3.011740974232118333e+03 2.969755259719598598e+03 3.009910098628503874e+03 2.959243296616468342e+03 2.993947656010556329e+03 2.930280462597652331e+03 2.962771407797160009e+03 2.883465896367807545e+03 2.916833970152015809e+03 2.822068435955804944e+03 2.858419978991667449e+03 2.751642452312958540e+03 2.791469927353461117e+03 2.679209382152412218e+03 2.721044082689476454e+03 2.612168965721957647e+03 2.652673984948882662e+03 2.557136519804426825e+03 2.591802896065255482e+03 2.518920970932736054e+03 2.543359917916774066e+03 2.499856804663066669e+03 2.511383016111572942e+03 2.499653648468545271e+03 2.498599334887824625e+03 2.515807419499805292e+03 2.505977604562304350e+03 2.544441089848229694e+03 2.532393856841538764e+03 2.581276048345378058e+03 2.574594641090006462e+03 2.622371475653503694e+03 2.627558593657740403e+03 2.664375950818031924e+03 2.685192423988984046e+03 2.704288674696252656e+03 2.741154385396720045e+03 2.739000352873475094e+03 2.789568774674688484e+03 2.765014683018945107e+03 2.825493880048932169e+03 2.778653259472097943e+03 2.845161503002076643e+03 2.776769877852636910e+03 2.846116256403292027e+03 2.757701351491327387e+03 2.827386945580312386e+03 2.722025709218797601e+03 2.789732389677857554e+03 2.672764546172385053e+03 2.735879584325704400e+03 2.614913268569370757e+03 2.670579480199716727e+03 2.554478553832805574e+03 2.600295371461862942e+03 2.497394261270868810e+03 2.532435383281026134e+03 2.448684105730379542e+03 2.474224588893250257e+03 2.412062614208388368e+03 2.431506930007998562e+03 2.389935265634692314e+03 2.407862552020515523e+03 2.383615752468620485e+03 2.404350476246370818e+03 2.393593630857323205e+03 2.419972303941520295e+03 2.419823700463644855e+03 2.452736251495324268e+03 2.462184367906506850e+03 2.501157881790573356e+03 2.521462845074462621e+03 2.566378349303382493e+03 2.601812860432845810e+03 2.656497028132250762e+03 2.718000000000000000e+03
2.643000000000000000e+03 2.660138421652638954e+03 2.678868450040343760e+03 2.694686873896767793e+03 2.715255467763243360e+03 2.727045096904145339e+03 2.753103608805506610e+03 2.758706665738341599e+03 2.793415832130137915e+03 2.790917353956930128e+03 2.835467692911834092e+03 2.824456684788272923e+03 2.877475209955351147e+03 2.859344164944329805e+03 2.917228584365886036e+03 2.894375997707457827e+03 2.952468756770338132e+03 2.926840693788424687e+03 2.980936197737753446e+03 2.952676947184837900e+03 3.000227509049246692e+03 2.967150459649133154e+03 3.007747262287826743e+03 2.965904380355646936e+03 3.000998472564007898e+03 2.946079084907005836e+03 2.978224154769273355e+03 2.907171404149980845e+03 2.939149427747179743e+03 2.851405925508215660e+03 2.885463604651591140e+03 2.783551885754657178e+03 2.820800339472898941e+03 2.710258049751272210e+03 2.750233264389807118e+03 2.639055529384378133e+03 2.679524665921265751e+03 2.577207539714885115e+03 2.614410516647567420e+03 2.530598864651114582e+03 2.560078698948742385e+03 2.502869142673525857e+03 2.520818433367572652e+03 2.494981170785252743e+03 2.499722453125812081e+03 2.505342431159837815e+03 2.498361795597134005e+03 2.530451895294676888e+03 2.516474399538883517e+03 2.565861947882692220e+03 2.551809133837343779e+03 2.607112134926252111e+03 2.600266679826642303e+03 2.650298960084187911e+03 2.656372308845765019e+03 2.692125358403861810e+03 2.713971697848277472e+03 2.729550680355130680e+03 2.766954534242783666e+03 2.759384098752035698e+03 2.809836120882457180e+03 2.778194766627994341e+03 2.838139460786352629e+03 2.782726019030897078e+03 2.848637171548857623e+03 2.770704647506427136e+03 2.839559172542709803e+03 2.741697325700246893e+03 2.810830415132720645e+03 2.697611558290047014e+03 2.764309427600207073e+03 2.642588745310436479e+03 2.703907976715408495e+03 2.582305973285218442e+03 2.635430769141120891e+03 2.522949784359019759e+03 2.566012843929449900e+03 2.470227694817833708e+03 2.503159237563246279e+03 2.428703473950640728e+03 2.453570912035417223e+03 2.401545843086053083e+03 2.422086799957334279e+03 2.390594753164813937e+03 2.411088693614695330e+03 2.396580044524722780e+03 2.420571972542204549e+03 2.419390429247761858e+03 2.448855232411813176e+03 2.458418365832538711e+03 2.493729813752140217e+03 2.513120816620091318e+03 2.553861884961692795e+03 2.584029934417606000e+03 2.630479302280453339e+03 2.674462551018626073e+03 2.729000000000000000e+03
2.600000000000000000e+03 2.616802042713497940e+03 2.635699138465625765e+03 2.655237912412631431e+03 2.674394176714407877e+03 2.696704586778479552e+03 2.712516709931719561e+03 2.740155003772923010e+03 2.750045771380145652e+03 2.785267582910314104e+03 2.787859777300837322e+03 2.831042330211274930e+03 2.826535242811754415e+03 2.875798626712879468e+03 2.865616927758766906e+03 2.917455222876009429e+03 2.903140057770387102e+03 2.953680971926773964e+03 2.935566376528199271e+03 2.981863207942521512e+03 2.958265155663627866e+03 2.999081438816447644e+03 2.966476168017321470e+03 3.002341435450883182e+03 2.956489495514297687e+03 2.989177295862423307e+03 2.926686413373126470e+03 2.958463713011964956e+03 2.878146405940552995e+03 2.911086440699212289e+03 2.814686877884082151e+03 2.850139565969624073e+03 2.742369985336166792e+03 2.780543859542961400e+03 2.668615866823438864e+03 2.708257638436607522e+03 2.601096505072920081e+03 2.639401283739869541e+03 2.546587973509427229e+03 2.579564263045975167e+03 2.509965990456160398e+03 2.533379493587732668e+03 2.493536981229200592e+03 2.504279119420572897e+03 2.496867057750373988e+03 2.494295537333163338e+03 2.517169600395131056e+03 2.503846405461208178e+03 2.550144376370172722e+03 2.531562160343003143e+03 2.590989552538366752e+03 2.574282678278963431e+03 2.635228734563519538e+03 2.627317694362578550e+03 2.679080177946200365e+03 2.684958162188031565e+03 2.719329336422420056e+03 2.741118661754883306e+03 2.752932246102535373e+03 2.789956267433829908e+03 2.776720771369495651e+03 2.826365278792261961e+03 2.787511496746968533e+03 2.846341502485171986e+03 2.782676948777982489e+03 2.847273806322993551e+03 2.760962182594148999e+03 2.828216876607364156e+03 2.723173550173990861e+03 2.790141507644026206e+03 2.672405323485168992e+03 2.736088268918782433e+03 2.613671912190575313e+03 2.671104004796915433e+03 2.553067615297102293e+03 2.601843919750214809e+03 2.496753897231802966e+03 2.535792862015572609e+03 2.450096130123086823e+03 2.480195110982752794e+03 2.417146638287678797e+03 2.440935361600385932e+03 2.400488701456678882e+03 2.421697969355374426e+03 2.401328839179799161e+03 2.423674761642238991e+03 2.419711252941133353e+03 2.445902055388848567e+03 2.454800037923039781e+03 2.486083435236862897e+03 2.505246592174471516e+03 2.541609360717210620e+03 2.569638290764425165e+03 2.610394005636091606e+03 2.646716123360677557e+03 2.690665594481417884e+03 2.734000000000000000e+03
2.557000000000000000e+03 2.572391191973616969e+03 2.591438746724637895e+03 2.615377486840699476e+03 2.636576322188067479e+03 2.660455024764447899e+03 2.683844552307765753e+03 2.704106688539250626e+03 2.732204132946043956e+03 2.746730432838005072e+03 2.781315564869488753e+03 2.789316561538739734e+03 2.830244874494678697e+03 2.832171657291187330e+03 2.877376410083669271e+03 2.874193246219165303e+03 2.920545856180301143e+03 2.912568405264312787e+03 2.957095650244459648e+03 2.943017692740792427e+03 2.983895288171693664e+03 2.960603581222945195e+03 2.997538806794014818e+03 2.960907559649662289e+03 2.994888525206105442e+03 2.941222476823772013e+03 2.973911845655604338e+03 2.901403101227502248e+03 2.934513767054224445e+03 2.844157724448541103e+03 2.878984436882871705e+03 2.774755493870411556e+03 2.811830674164205448e+03 2.700269603626330081e+03 2.739049295739046102e+03 2.628535059051006101e+03 2.667141008939793210e+03 2.566998887872707201e+03 2.602215017388986780e+03 2.521632268846976785e+03 2.549395073704433344e+03 2.496081337962784801e+03 2.512528633686732974e+03 2.491232654172097227e+03 2.494063222450623016e+03 2.505314924828522635e+03 2.494952289146427120e+03 2.534527535884178633e+03 2.514549956292315983e+03 2.574009639694089401e+03 2.550559616847280722e+03 2.618823848029625879e+03 2.599139284848322859e+03 2.664618634796123843e+03 2.655219242606340686e+03 2.707790289834936630e+03 2.712997110122518734e+03 2.745225035816945365e+03 2.766509012384054131e+03 2.773922815723536587e+03 2.810174942309410199e+03 2.790854341528698569e+03 2.839269172353971953e+03 2.793251331163403847e+03 2.850321659993840058e+03 2.779267581986241566e+03 2.841471005856761167e+03 2.748725834126442805e+03 2.812761048614541323e+03 2.703597850371673303e+03 2.766329413527784254e+03 2.647975159099684333e+03 2.706404668495500573e+03 2.587506620083943744e+03 2.639023302998324652e+03 2.528491968704922783e+03 2.571410252416734693e+03 2.476927414159609270e+03 2.511050083231892131e+03 2.437762646321799366e+03 2.464601293548944795e+03 2.414490286382055274e+03 2.436919174254971949e+03 2.409041903240419288e+03 2.430472921793266778e+03 2.421890302142331620e+03 2.445326089341936040e+03 2.452269806113167760e+03 2.479636921503881240e+03 2.498466660543967464e+03 2.530426623326726258e+03 2.558108735122361395e+03 2.594201004246026969e+03 2.628143193692298610e+03 2.666583269888385075e+03 2.702931650513459317e+03 2.737000000000000000e+03
2.498000000000000000e+03 2.521044057952543881e+03 2.548751641450396619e+03 2.571985802492324183e+03 2.602107623634595711e+03 2.624587028585267035e+03 2.653056363217106536e+03 2.677026861536962315e+03 2.701285424511961537e+03 2.729513491489069111e+03 2.748091423171350016e+03 2.782021737200861935e+03 2.794545761340120862e+03 2.833679606034348126e+03 2.840499835500316749e+03 2.882763724862976233e+03 2.884052229703307148e+03 2.926791924872556137e+03 2.921534848085005706e+03 2.962596857989133241e+03 2.948104899360608215e+03 2.986508156355609117e+03 2.958841647693214327e+03 2.994829753437436921e+03 2.950035569734543969e+03 2.984653892422488752e+03 2.920273140576368860e+03 2.954803660246545860e+03 2.871009216190224834e+03 2.906525517809694065e+03 2.806515712253277798e+03 2.843600338162606022e+03 2.733285098009241210e+03 2.771791683462006404e+03 2.659069604076759333e+03 2.697846556231237173e+03 2.591749599289174512e+03 2.628424768636795307e+03 2.538200900688761976e+03 2.569280568898513138e+03 2.503320858595155187e+03 2.524821334522356210e+03 2.489379835388031552e+03 2.497967390483347572e+03 2.495847789646809360e+03 2.490147151570037749e+03 2.519761864962883010e+03 2.501300444154891920e+03 2.556547669473932274e+03 2.529866842787409951e+03 2.601040264571217449e+03 2.572821332241544496e+03 2.648363420355239214e+03 2.625836834147052741e+03 2.694390393374532323e+03 2.683607250184214081e+03 2.735719022296962976e+03 2.740300690043426584e+03 2.769344866427446959e+03 2.790077751266059749e+03 2.792364859876331138e+03 2.827618096653043722e+03 2.802002260476284846e+03 2.848625155178430305e+03 2.796039385395389672e+03 2.850289063265123332e+03 2.773499807251475886e+03 2.831672481644946402e+03 2.735270294328511682e+03 2.793961657051405382e+03 2.684363553507623692e+03 2.740516866524642865e+03 2.625674189099888281e+03 2.676664921340603996e+03 2.565286410736795460e+03 2.609197278133923646e+03 2.509552435864699419e+03 2.545579482270915832e+03 2.464208187520651791e+03 2.492956398772835655e+03 2.433724250638792000e+03 2.457139842506802779e+03 2.420962802070253019e+03 2.441831979817400224e+03 2.427104632674567256e+03 2.448300170858022284e+03 2.451769196909699531e+03 2.475561205953949866e+03 2.493254286420313292e+03 2.520918193476715714e+03 2.548803908140344902e+03 2.580508887851013696e+03 2.614700376452928140e+03 2.649365187511351451e+03 2.685653767032642918e+03 2.720062534366610180e+03 2.752000000000000000e+03
2.439000000000000000e+03 2.471043068825142200e+03 2.500431315230422570e+03 2.536211541106206823e+03 2.561597293269339843e+03 2.596563610949780923e+03 2.619917361714522940e+03 2.651658762607525659e+03 2.676475794687353755e+03 2.703279345820947583e+03 2.732390941111880693e+03 2.753335009783878377e+03 2.787812323700385150e+03 2.802718924363884071e+03 2.841744407248655079e+03 2.850604302548234045e+03 2.892133710302896816e+03 2.894188777772373214e+03 2.935990284991328281e+03 2.929028678622024927e+03 2.969573891833133075e+03 2.949973961641107962e+03 2.988808786259128283e+03 2.952475205078368163e+03 2.990036207711639690e+03 2.933865579304603216e+03 2.971000645485047698e+03 2.894229652502784120e+03 2.931743441639117464e+03 2.836640960700499818e+03 2.875018000024631419e+03 2.766772728656387244e+03 2.806010071240147681e+03 2.692045957554697452e+03 2.731448935700809216e+03 2.620529861015296319e+03 2.658445427253359412e+03 2.559785305830617745e+03 2.593450113606980267e+03 2.515808023510178373e+03 2.541585050383388079e+03 2.492220651733738578e+03 2.506380223908042353e+03 2.489862762423735603e+03 2.489779227402737888e+03 2.506887808652980766e+03 2.492238313180406294e+03 2.539364732224098589e+03 2.512808131522398980e+03 2.582221615834053864e+03 2.549186690388553416e+03 2.630233740230055446e+03 2.597799547360871202e+03 2.678736745600604536e+03 2.653972983074621879e+03 2.723877160048628866e+03 2.712233520052128370e+03 2.762445770043992070e+03 2.766727700452385761e+03 2.791548537665903041e+03 2.811733786178199352e+03 2.808433563012664308e+03 2.842228934868336637e+03 2.810676617774773604e+03 2.854462943078392527e+03 2.796705969120991995e+03 2.846466762899725836e+03 2.766447273404264251e+03 2.818407999646196004e+03 2.721791266450212788e+03 2.772716598514084126e+03 2.666654427897304686e+03 2.713938631349447860e+03 2.606566949246462173e+03 2.648311791052896751e+03 2.547898682918304530e+03 2.583082203377191490e+03 2.496944587403128025e+03 2.525616562391202933e+03 2.459099104758174690e+03 2.482427164850029840e+03 2.438271544090879615e+03 2.458301383151747814e+03 2.436589904512851717e+03 2.455749427078359531e+03 2.454364869334237028e+03 2.474900608045387798e+03 2.490251141239407843e+03 2.513799505479805703e+03 2.541512239569008216e+03 2.568856013829976291e+03 2.604220936056695336e+03 2.635077108463058266e+03 2.673140072583023084e+03 2.705805479142983586e+03 2.741364720426507120e+03 2.773000000000000000e+03
2.372000000000000000e+03 2.416609565455785742e+03 2.460179132481862780e+03 2.492959519682227437e+03 2.533825950256005399e+03 2.560379428440550782e+03 2.597822858308170453e+03 2.622556680880408749e+03 2.655269730145282210e+03 2.682275430935558234e+03 2.709187795557631034e+03 2.741044539442998484e+03 2.761640824427467578e+03 2.798892931683521965e+03 2.813020186141720387e+03 2.854461992829294559e+03 2.861619810755584240e+03 2.905173879494810990e+03 2.903708971360687883e+03 2.947439284532024431e+03 2.934236578562064096e+03 2.977024341385890693e+03 2.948061179436479506e+03 2.989719122303191398e+03 2.941360502913296386e+03 2.982302046601015718e+03 2.912784654431711260e+03 2.953562439843712127e+03 2.864023520026173628e+03 2.904996816879450307e+03 2.799685662265391784e+03 2.840859105558221472e+03 2.726601990919130913e+03 2.767502547536724251e+03 2.652779234786251436e+03 2.692249154697811264e+03 2.586229511716815068e+03 2.622187012612842409e+03 2.533853230627691119e+03 2.563250401404354761e+03 2.500516263613507363e+03 2.519742367506265509e+03 2.488454400306491152e+03 2.494247540670252420e+03 2.497124310044334379e+03 2.487763564315949225e+03 2.523554934872545800e+03 2.499879830733138533e+03 2.563124786701315315e+03 2.528909461367409676e+03 2.610542785625124452e+03 2.571970328533644988e+03 2.660724951336289905e+03 2.625068702066388596e+03 2.709305558387904512e+03 2.683253549102033048e+03 2.752699458706116275e+03 2.740893804756111422e+03 2.787856072445786140e+03 2.792103112931520627e+03 2.811989459668832751e+03 2.831303270724151844e+03 2.822551270166934501e+03 2.853875181178096227e+03 2.817551386632037065e+03 2.856798248815841816e+03 2.796123598826863144e+03 2.839148954845315075e+03 2.759091798601213213e+03 2.802343807637555074e+03 2.709275811365714162e+03 2.750070807377839628e+03 2.651375294257456062e+03 2.687921771747131515e+03 2.591427102979051142e+03 2.622777557578580854e+03 2.535974305594928865e+03 2.562008884500735348e+03 2.491158502472735563e+03 2.512572227494161780e+03 2.461934566050979356e+03 2.480126625423138194e+03 2.451534740106335903e+03 2.468344673021014842e+03 2.461225508591705875e+03 2.478575525078173087e+03 2.490337335324283686e+03 2.509902581108437062e+03 2.536494464853061345e+03 2.559456827713425810e+03 2.595894695783150382e+03 2.622683398254861913e+03 2.663389574371037270e+03 2.693240737280316807e+03 2.732236638688687435e+03 2.763009840235684806e+03 2.796000000000000000e+03
2.321000000000000000e+03 2.371682932888556024e+03 2.415926388896035405e+03 2.463560807049913365e+03 2.497258485400504924e+03 2.539555856792809209e+03 2.567617350271123996e+03 2.604392971832298372e+03 2.632197770910583586e+03 2.662768363095154200e+03 2.694349943928534231e+03 2.718145681306585629e+03 2.755452575680046266e+03 2.772272801919994890e+03 2.815109936566753277e+03 2.824732402276270932e+03 2.871392830299508205e+03 2.872801183685357501e+03 2.921088356531624413e+03 2.911885256304699396e+03 2.960041815898654022e+03 2.936578228192288407e+03 2.983737988859487359e+03 2.942100324025591362e+03 2.988192432694596391e+03 2.925685999305675978e+03 2.971019868921469424e+03 2.887498169994512864e+03 2.932347572321323241e+03 2.830838200600065647e+03 2.875201736125293337e+03 2.761672492199620137e+03 2.805168829843924414e+03 2.687679694034557087e+03 2.729429444144149784e+03 2.617078955461252463e+03 2.655506172468173190e+03 2.557459526843369076e+03 2.590129519879880263e+03 2.514768219656548808e+03 2.538499802108244694e+03 2.492574604690356409e+03 2.504009132353268797e+03 2.491720747761711664e+03 2.488309706013869345e+03 2.510431102722841388e+03 2.491541787843885231e+03 2.544873531576737150e+03 2.512561948584324909e+03 2.590032769167637525e+03 2.549091622208500212e+03 2.640641403130087838e+03 2.597789389968158048e+03 2.691887118603248837e+03 2.654309115193759681e+03 2.739718523492110307e+03 2.713431562202626992e+03 2.780767949379550828e+03 2.769350739466987307e+03 2.812094673196891563e+03 2.816159725711082046e+03 2.831021273340894822e+03 2.848515911777504698e+03 2.835254561179374377e+03 2.862385060634935144e+03 2.823305701191322441e+03 2.855700485148740427e+03 2.795052589504630760e+03 2.828768807364949680e+03 2.752202611759915726e+03 2.784321028164244126e+03 2.698440472777229388e+03 2.727211346732762649e+03 2.639156875920823950e+03 2.663844181849364759e+03 2.580795296070343738e+03 2.601428100950110093e+03 2.529969299348683762e+03 2.547138195116618590e+03 2.492553194411926597e+03 2.507268010344738286e+03 2.472928761571051837e+03 2.486486304176182784e+03 2.473506918432023213e+03 2.487339965408687476e+03 2.494569803301418688e+03 2.510099732577608393e+03 2.534407240001452465e+03 2.552912368402516222e+03 2.589633248214277955e+03 2.612050139415941885e+03 2.655442670040619305e+03 2.681907713276756112e+03 2.725418941843919583e+03 2.754307494595213029e+03 2.790268282279705090e+03 2.816000000000000000e+03
2.262000000000000000e+03 2.325645992520101117e+03 2.383831685761414519e+03 2.428876256039774944e+03 2.476518176046935423e+03 2.511148862043816280e+03 2.550949478172655745e+03 2.582323962554517038e+03 2.614742559552995317e+03 2.648372792302710423e+03 2.673160629762771805e+03 2.712408090642669322e+03 2.729459934774322846e+03 2.775264036512303846e+03 2.784657161227401502e+03 2.835884811596043164e+03 2.837281691890561888e+03 2.891646165006229239e+03 2.883548306995757684e+03 2.938700605840649132e+03 2.918167479349731821e+03 2.972485534131189979e+03 2.935701154230223437e+03 2.988512847365261223e+03 2.932095580587752011e+03 2.983407237940634786e+03 2.905920007928094037e+03 2.955948682199105406e+03 2.858953838755352990e+03 2.907751089764907647e+03 2.796014790122937029e+03 2.843281616914621281e+03 2.724166036370049824e+03 2.769171299629551413e+03 2.651573407665301147e+03 2.693047873053991680e+03 2.586285490386492711e+03 2.622280052646076911e+03 2.535137059032846992e+03 2.562990902875837037e+03 2.502903560504697452e+03 2.519525227252541754e+03 2.491796343121940936e+03 2.494354751024550296e+03 2.501367229829083954e+03 2.488270081661054519e+03 2.528845346719850113e+03 2.500672126306481459e+03 2.569837153484072132e+03 2.529816759796615315e+03 2.619207257817478876e+03 2.572945852383402325e+03 2.671886024487105715e+03 2.626322432924790064e+03 2.723380353177533379e+03 2.685255422479525350e+03 2.769903582068104242e+03 2.744233244272361389e+03 2.808224641062581213e+03 2.797272154089662308e+03 2.835463956405397767e+03 2.838518595552399802e+03 2.849064078326178787e+03 2.863038410230814861e+03 2.847043972831321753e+03 2.867620254779309562e+03 2.828480343508556871e+03 2.851373948726751223e+03 2.794032137725791017e+03 2.815954201499781448e+03 2.746285231194873177e+03 2.765365715387943510e+03 2.689745860729714423e+03 2.705432933590697303e+03 2.630423490720614609e+03 2.643075035685561943e+03 2.575071162697201544e+03 2.585504953353061865e+03 2.530248431949173664e+03 2.539426115108955401e+03 2.501409288140802346e+03 2.510292471775298054e+03 2.492194325249418853e+03 2.501727272435007762e+03 2.504045348564845426e+03 2.515206052353192717e+03 2.536182518557007825e+03 2.550043304638365044e+03 2.585888067180608232e+03 2.603582261176513839e+03 2.648910067422156771e+03 2.671322878257031334e+03 2.719618960502601567e+03 2.746537445167818078e+03 2.790200174466922817e+03 2.818227259729812886e+03 2.846000000000000000e+03
2.212000000000000000e+03 2.291905052184730266e+03 2.353467081818425868e+03 2.408580984737106974e+03 2.452589200393954798e+03 2.495357768695084360e+03 2.532629371831026219e+03 2.565818137006124743e+03 2.603492190951124485e+03 2.627636365465775270e+03 2.670469800828781445e+03 2.685744126275112649e+03 2.735884609525235646e+03 2.742682350043749466e+03 2.799756298736982899e+03 2.798402269401084595e+03 2.860235520924697994e+03 2.850229773619318621e+03 2.913982399501396230e+03 2.893387632595687137e+03 2.956627032736503224e+03 2.922159759967117679e+03 2.983452732530582580e+03 2.931450453820192706e+03 2.990349215882853514e+03 2.918278498555715487e+03 2.974892887661545956e+03 2.882751107208828216e+03 2.937238025723766441e+03 2.828265098005487744e+03 2.880478039182941757e+03 2.760960356116381718e+03 2.810301228495370196e+03 2.688664084728825856e+03 2.734034769714843151e+03 2.619638546659225085e+03 2.659393301574408724e+03 2.561396605272813304e+03 2.593313549711782343e+03 2.519751893252592708e+03 2.541156531193661976e+03 2.498191922750281719e+03 2.506374164907113936e+03 2.497622934386430643e+03 2.490567098350492415e+03 2.516508437197127023e+03 2.493765135978947455e+03 2.551372038757659993e+03 2.514748538443949656e+03 2.597550458657909530e+03 2.551276488049815725e+03 2.649999356216328124e+03 2.600172424181150745e+03 2.703931172284164859e+03 2.657310380189314401e+03 2.755137804184621473e+03 2.717624187597440596e+03 2.800000070398319167e+03 2.775291437816792040e+03 2.835334041256666296e+03 2.824202771842988568e+03 2.858288914018683954e+03 2.858715438309716319e+03 2.866460279064882798e+03 2.874547417828036032e+03 2.858252154197211439e+03 2.869565994274334571e+03 2.833382681377470362e+03 2.844228485821217873e+03 2.793342592924283053e+03 2.801552607353244184e+03 2.741608197825539264e+03 2.746662881859350819e+03 2.683475852739774837e+03 2.686076970950670329e+03 2.625496418030581935e+03 2.626905460175932149e+03 2.574607151607631749e+03 2.576071788098922298e+03 2.537144170676474914e+03 2.539598292754230897e+03 2.517946152537246689e+03 2.522002176724898163e+03 2.519730957873949137e+03 2.525877282453931457e+03 2.542858878610041756e+03 2.551734691020809805e+03 2.585500296055470244e+03 2.598094804517639204e+03 2.644097756157007097e+03 2.661684676725742975e+03 2.713845983440211512e+03 2.737435716253848568e+03 2.788697807776965419e+03 2.817772494443352116e+03 2.860165148281796064e+03 2.891000000000000000e+03
2.196000000000000000e+03 2.272907672239790372e+03 2.337228334882457148e+03 2.392073457663954287e+03 2.438523113986896988e+03 2.483208748941430713e+03 2.516874641764638000e+03 2.559982374311366584e+03 2.582568254407796758e+03 2.630141838674331666e+03 2.642306362455969975e+03 2.697700536493376603e+03 2.700170117427334390e+03 2.763916553332396234e+03 2.757603472282786242e+03 2.827865854123225745e+03 2.813256341434670503e+03 2.886878093427901149e+03 2.863221818604094551e+03 2.936977955241323343e+03 2.901925630359612114e+03 2.973475901469779728e+03 2.923582109045945799e+03 2.991807915932020933e+03 2.923832361128082084e+03 2.988576976966216080e+03 2.901064846408410176e+03 2.962562111993643157e+03 2.857031470401694150e+03 2.915360970228297901e+03 2.796637489874571202e+03 2.851405015863749668e+03 2.727058361683868952e+03 2.777306207023171737e+03 2.656499574516107259e+03 2.700739696875099071e+03 2.592927477303344403e+03 2.629210220674158336e+03 2.543005782383390397e+03 2.569035447751881293e+03 2.511355782481924962e+03 2.524744544213221616e+03 2.500177819960155830e+03 2.498919040176140243e+03 2.509234538344376233e+03 2.492368276988827347e+03 2.536171330648504409e+03 2.504464500509796380e+03 2.577104044383169821e+03 2.533462452772804681e+03 2.627338976988326522e+03 2.576683598029844234e+03 2.682043296724005359e+03 2.630540366333061229e+03 2.736701842344936267e+03 2.690484214723166588e+03 2.787292277102643311e+03 2.751041265107844538e+03 2.830244218167627878e+03 2.806106507227777911e+03 2.862346732832814268e+03 2.849579897608740339e+03 2.880778325051691354e+03 2.876268767285075683e+03 2.883354143629523151e+03 2.882824008824952671e+03 2.868963468859878958e+03 2.868413882211127657e+03 2.838063973760014505e+03 2.834918786648177502e+03 2.793046144324639499e+03 2.786615131245006069e+03 2.738295178088912508e+03 2.729496572670044316e+03 2.679853184769337531e+03 2.670453360888445332e+03 2.624698695205750028e+03 2.616478539356332476e+03 2.579775075480618852e+03 2.573968746290121999e+03 2.550974792303765753e+03 2.548130734049744660e+03 2.542301671509203970e+03 2.542520364808975501e+03 2.555392040603766873e+03 2.558776900578678124e+03 2.589491356022470882e+03 2.596600950339554402e+03 2.641862516121975659e+03 2.653937328092143616e+03 2.708448776330237706e+03 2.727197141880465551e+03 2.784438803824924889e+03 2.811216922352955862e+03 2.864194874335741588e+03 2.898411833217101048e+03 2.939000000000000000e+03
2.195000000000000000e+03 2.267132477425220713e+03 2.331442985284745646e+03 2.382397043004792522e+03 2.434710115286471137e+03 2.469192511848194499e+03 2.518251440103712866e+03 2.539079928740711239e+03 2.591861322979653323e+03 2.600336501060380670e+03 2.661275079217978600e+03 2.658481193839478237e+03 2.729079239179797241e+03 2.716404947957884360e+03 2.795377658936167791e+03 2.774173064008237361e+03 2.858287193024565568e+03 2.829018313241897431e+03 2.914381025791424690e+03 2.875911679579627616e+03 2.959209607012987817e+03 2.908797321402926627e+03 2.988022718865544448e+03 2.922237208064474999e+03 2.996720687772720794e+03 2.912986737417373661e+03 2.982892319255695838e+03 2.881019535163772616e+03 2.946652719863172024e+03 2.829724448753722754e+03 2.890983054310402167e+03 2.765295224412378957e+03 2.821422042613941812e+03 2.695579029620552774e+03 2.745188652816490048e+03 2.628749617375864091e+03 2.670004891902471627e+03 2.572120266638551584e+03 2.602951626330006093e+03 2.531279196101041634e+03 2.549623566210213085e+03 2.509601678717726827e+03 2.513708687130430462e+03 2.508118108718109397e+03 2.496971558669386468e+03 2.525691255871415251e+03 2.499513647344943820e+03 2.559442549940876688e+03 2.520132969684875661e+03 2.605338051647037446e+03 2.556614611194001100e+03 2.658805886807437219e+03 2.605852184281661266e+03 2.715243678231910053e+03 2.663813862641551623e+03 2.770318591703141010e+03 2.725485659468586164e+03 2.820058308698277415e+03 2.784990879195350317e+03 2.860831483995779308e+03 2.836048849354172489e+03 2.889364711838321455e+03 2.872792809044443857e+03 2.902914434993035229e+03 2.890774510571561677e+03 2.899625550174561340e+03 2.887845729523031423e+03 2.879006714473094689e+03 2.864614970712555987e+03 2.842374868302033065e+03 2.824339962489374557e+03 2.793092626026741073e+03 2.772340327310325392e+03 2.736453258908841235e+03 2.715165687146927212e+03 2.679155537636431745e+03 2.659756493564580069e+03 2.628429933270219863e+03 2.612725354904069718e+03 2.590986816972604629e+03 2.579774475719212205e+03 2.572018258269376020e+03 2.565232020060693230e+03 2.574482546172664115e+03 2.571728752212678501e+03 2.598840609322876844e+03 2.600073337077956694e+03 2.643307405640758589e+03 2.649360470406328204e+03 2.704539996109795084e+03 2.717264113547768375e+03 2.778528271716127620e+03 2.800372891145563244e+03 2.861324782281758871e+03 2.894409917745168059e+03 2.949656201847464217e+03 2.997000000000000000e+03
2.203000000000000000e+03 2.273854646383130330e+03 2.330155626525800471e+03 2.388682471750333661e+03 2.424701774699048656e+03 2.479107981182861749e+03 2.498562202605446601e+03 2.556180567682975379e+03 2.561074646262543865e+03 2.627124153040987949e+03 2.618932617975272933e+03 2.695823988328193991e+03 2.676299909550971734e+03 2.763448520080128674e+03 2.734608794152699375e+03 2.828970262650215773e+03 2.792371170723647538e+03 2.889614859534297921e+03 2.845430940121785170e+03 2.941332443421522385e+03 2.887892694619225495e+03 2.979413153407312166e+03 2.913632469816689536e+03 2.999323069133359695e+03 2.917996934383660573e+03 2.997701996360891371e+03 2.899174538460103122e+03 2.973306313955435144e+03 2.858828273200167587e+03 2.927605224223053938e+03 2.801850951913027984e+03 2.864809682045502996e+03 2.735403394123387898e+03 2.791298939473193968e+03 2.667590743037573702e+03 2.714611025627481467e+03 2.606159791159082943e+03 2.642284365507977782e+03 2.557489019497353183e+03 2.580840329608167849e+03 2.525980243469241032e+03 2.535106396544711970e+03 2.513831978545709262e+03 2.507950981618429523e+03 2.521116908812842212e+03 2.500379458319106561e+03 2.546081290100071783e+03 2.511851813395547651e+03 2.585590859026498492e+03 2.540641374081875711e+03 2.635639838762224826e+03 2.584075934348078135e+03 2.691825770421231027e+03 2.638592073723836620e+03 2.749702938823746535e+03 2.699666304793216113e+03 2.804978744510582601e+03 2.761804557701312206e+03 2.853593666842460607e+03 2.818803938271683364e+03 2.891784629832811333e+03 2.864406881965262528e+03 2.916239024979467104e+03 2.893273966834820385e+03 2.924399023431861224e+03 2.902004410394702973e+03 2.914897129681179194e+03 2.889852603584733970e+03 2.888025135371375200e+03 2.858888296216609433e+03 2.846084889016904526e+03 2.813577987484271489e+03 2.793460445705955408e+03 2.759987235231237264e+03 2.736300169243295841e+03 2.704888730341586779e+03 2.681798659771518942e+03 2.654985201541589959e+03 2.637190325971266248e+03 2.616310232556239953e+03 2.608664114899223932e+03 2.593773950028596118e+03 2.600449389839515788e+03 2.590824224994931228e+03 2.614297907909930018e+03 2.609252208827800132e+03 2.649504106239312023e+03 2.649203850924069229e+03 2.703478839897712987e+03 2.709431234144601149e+03 2.772746212509802263e+03 2.787760972033126563e+03 2.854109674524068396e+03 2.881679835940589328e+03 2.945480007604524872e+03 2.988000111659662707e+03 3.042000000000000000e+03
2.222000000000000000e+03 2.285693451081197054e+03 2.347612797093975587e+03 2.386106061207882703e+03 2.443972864447856864e+03 2.462824002926131470e+03 2.523952555771832976e+03 2.525899046248826835e+03 2.595858657255887465e+03 2.582804448055720059e+03 2.664696867301708153e+03 2.638681753446994207e+03 2.732649890162550946e+03 2.696142437190113014e+03 2.799557434589072727e+03 2.754964400270144324e+03 2.863352507696430621e+03 2.812066212090067438e+03 2.920491613788209179e+03 2.862089927350253674e+03 2.966478810257462101e+03 2.898659440163617091e+03 2.996581405882806393e+03 2.916053897499939922e+03 3.006743668412955230e+03 2.910812539514195578e+03 2.994557017633697797e+03 2.882775914992062098e+03 2.960031785505988410e+03 2.835267429502219784e+03 2.905918761356868345e+03 2.774427352168453581e+03 2.837457044957118796e+03 2.707984831861579551e+03 2.761610084178535089e+03 2.643879644553610433e+03 2.686002359460744174e+03 2.589096108696919146e+03 2.617828155704071378e+03 2.548906646353237193e+03 2.562970214671891881e+03 2.526543573942945841e+03 2.525474503520400503e+03 2.523204906461754490e+03 2.507415840330335868e+03 2.538272924085015802e+03 2.509083184314782102e+03 2.569649500056969373e+03 2.529332660251499419e+03 2.614142304784601492e+03 2.565925323720898632e+03 2.667847522793995267e+03 2.615708796061098383e+03 2.726478000839344986e+03 2.674616953264733183e+03 2.785604325951201190e+03 2.737607184830549159e+03 2.840817691305459903e+03 2.798753465245815278e+03 2.887868669691294144e+03 2.851693466334266759e+03 2.922856521046905073e+03 2.890472299069916517e+03 2.942525210986887032e+03 2.910601174805201026e+03 2.944672660128725511e+03 2.909983909436928570e+03 2.928617288032057331e+03 2.889369848442242983e+03 2.895608640089317760e+03 2.852180929450436452e+03 2.849035280705007153e+03 2.803823478622468883e+03 2.794294300289318016e+03 2.750771978284719353e+03 2.738255220445219493e+03 2.699710023498675582e+03 2.688363621476271874e+03 2.656873052112912319e+03 2.651547078507888727e+03 2.627585969727183056e+03 2.633164405224732945e+03 2.615931079342469729e+03 2.636254296267822156e+03 2.624523549506810468e+03 2.661288949237910856e+03 2.654439840333767734e+03 2.706531814555408346e+03 2.705369838835096743e+03 2.768959708499606222e+03 2.776047325959659702e+03 2.845597554221258179e+03 2.865032874850145618e+03 2.935133464112507227e+03 2.972037358926293564e+03 3.039690396204147419e+03 3.099000000000000000e+03
2.256000000000000000e+03 2.315376690745872565e+03 2.356955253515704044e+03 2.415003102816909177e+03 2.434199664816593213e+03 2.496479603264918751e+03 2.496435199407264463e+03 2.568320424905283744e+03 2.551395447301988497e+03 2.636322729306800284e+03 2.604821953284488700e+03 2.703532366901972182e+03 2.660201822502524465e+03 2.770600033889330462e+03 2.718414368139940962e+03 2.836170855960584959e+03 2.777498497330253940e+03 2.897266219062181790e+03 2.832899490755616171e+03 2.949725161529822799e+03 2.878397676134562062e+03 2.988804369760352529e+03 2.907615133251366387e+03 3.009985601887820849e+03 2.915709709308159745e+03 3.009916358880420375e+03 2.900740839817132837e+03 2.987280861758879382e+03 2.864286929179578692e+03 2.943350132872510585e+03 2.811161682857999494e+03 2.882030392776049666e+03 2.748391467683095470e+03 2.809381420171529044e+03 2.683837498261807923e+03 2.732732650952572385e+03 2.624890153957043822e+03 2.659620307235042219e+03 2.577537438326855408e+03 2.596784389357308555e+03 2.545905001663765233e+03 2.549417220907665524e+03 2.532190795295097359e+03 2.520772313067819141e+03 2.536839113915055350e+03 2.512142960942212540e+03 2.558813196715364029e+03 2.523120006761926561e+03 2.595883036714328227e+03 2.551962951168158270e+03 2.644895070941270205e+03 2.595903522348932711e+03 2.702013811946254918e+03 2.651270397013109687e+03 2.762934000292547807e+03 2.713462825675025670e+03 2.823073841163308316e+03 2.776944751097586959e+03 2.877778093663515847e+03 2.835490885899645491e+03 2.922571050695922168e+03 2.882832556445018326e+03 2.953491183723722770e+03 2.913643897809357441e+03 2.967511247506136897e+03 2.924586142638548608e+03 2.963008111102240491e+03 2.915029909054400832e+03 2.940203281106261784e+03 2.887180392756567016e+03 2.901457189276756253e+03 2.845586248320081722e+03 2.851286131545758963e+03 2.796263553302268974e+03 2.796003055741719436e+03 2.745762730313247175e+03 2.742969225588698464e+03 2.700416778237270591e+03 2.699559821442455359e+03 2.665832419341197237e+03 2.672049571715667298e+03 2.646559825582221038e+03 2.664677561191692803e+03 2.645868212670702178e+03 2.679137722964038858e+03 2.665625576179702875e+03 2.714664187629698063e+03 2.706347187119774389e+03 2.768752581968145023e+03 2.767496782291725594e+03 2.838425815553654047e+03 2.848148400438838962e+03 2.921949212443602391e+03 2.948363121834684534e+03 3.021518480087747321e+03 3.073375826041197342e+03 3.153000000000000000e+03
2.295000000000000000e+03 2.341157111863948103e+03 2.395027415961804309e+03 2.415548491696546989e+03 2.475595731425801659e+03 2.474648405736677432e+03 2.545688376670415892e+03 2.526110595464772814e+03 2.611504948922156473e+03 2.575902588153198394e+03 2.676713796842559077e+03 2.628017483827212800e+03 2.742642524627623516e+03 2.684145669335250204e+03 2.808596737334525187e+03 2.743331688513151676e+03 2.872176317544257927e+03 2.801939998849325093e+03 2.929630758292985774e+03 2.854227950908693401e+03 2.976346565366083723e+03 2.893576838024266635e+03 3.007539045208437983e+03 2.914124417561732571e+03 3.019126923533518493e+03 2.912328267696032981e+03 3.008641201457998704e+03 2.887970512718572081e+03 2.975937666013100170e+03 2.844300898541433526e+03 2.923502371707419570e+03 2.787323204649102081e+03 2.856252734582146331e+03 2.724520920504580772e+03 2.780882479691943445e+03 2.663465196381567694e+03 2.704911900044101912e+03 2.610701029660968288e+03 2.635655363168102667e+03 2.571116425254750993e+03 2.579310864522710290e+03 2.547777906437663660e+03 2.540329452115312961e+03 2.542070383155470154e+03 2.521147276953724031e+03 2.553951372584976980e+03 2.522266991280328057e+03 2.582189173546660641e+03 2.542575844848344786e+03 2.624539138235524661e+03 2.579721747876802510e+03 2.677872917852829232e+03 2.630377726895084379e+03 2.738299858220807437e+03 2.690325276744375515e+03 2.801320881161317629e+03 2.754441440536104892e+03 2.862048305876875929e+03 2.816798706146403674e+03 2.915513789991722206e+03 2.871091793382991000e+03 2.957068479245200706e+03 2.911458404091207285e+03 2.982856244393366978e+03 2.933525505677561796e+03 2.990317817903171544e+03 2.935327626406984109e+03 2.978661612238895486e+03 2.917738214338260605e+03 2.949213208985976053e+03 2.884251408666089446e+03 2.905535891429899948e+03 2.840234765190225062e+03 2.853220095993222913e+03 2.791968284958294134e+03 2.799291508031290959e+03 2.745785250234926480e+03 2.751283595226015677e+03 2.707473081178049142e+03 2.716129436516324404e+03 2.681914785165368812e+03 2.699108819069293986e+03 2.672873138180897513e+03 2.703111693944581475e+03 2.682858075381011531e+03 2.728437839617398822e+03 2.713102137823667363e+03 2.773246958671010361e+03 2.763722712289543324e+03 2.834626712373880309e+03 2.834165719265747612e+03 2.910136834471300972e+03 2.924103183401491606e+03 2.999824065705394787e+03 3.035407622866395286e+03 3.109616881127019042e+03 3.177000000000000000e+03
2.346000000000000000e+03 2.387800729634941035e+03 2.410161519172896988e+03 2.463676443669653963e+03 2.462886664747715258e+03 2.529547487912987435e+03 2.508553458744927411e+03 2.591298332672887227e+03 2.553089879660411043e+03 2.652949171005146127e+03 2.600636916565572847e+03 2.716290196275981089e+03 2.653325410729019495e+03 2.781166994934899321e+03 2.710951402445423810e+03 2.845723283591726613e+03 2.770752471188209711e+03 2.906655137769982503e+03 2.827649645175421028e+03 2.959579178263028552e+03 2.875140965326582318e+03 2.999601598938982534e+03 2.906741438047373322e+03 3.022103806585013899e+03 2.917596705760482564e+03 3.023644574583555368e+03 2.905775793582472488e+03 3.002777965436825525e+03 2.872830562541530071e+03 2.960565819689057662e+03 2.823464937762071258e+03 2.900638549126947510e+03 2.764474732314830362e+03 2.828785446708727704e+03 2.703356448967296274e+03 2.752173976275333189e+03 2.647037926290210180e+03 2.678368905535989143e+03 2.601048174687520259e+03 2.614343965894912344e+03 2.569208005885200237e+03 2.565664110623559736e+03 2.553714376916017954e+03 2.535972807387626290e+03 2.555397828597595890e+03 2.526844771554715408e+03 2.573962579296849981e+03 2.537965071814929615e+03 2.608118166191879482e+03 2.567497773507229795e+03 2.655611505918418061e+03 2.612458095052575572e+03 2.713227681613842378e+03 2.668941762246293820e+03 2.776841849828843806e+03 2.732192620926316067e+03 2.841587854568417697e+03 2.796644986957154288e+03 2.902175725778210108e+03 2.856164204491714372e+03 2.953349696961571681e+03 2.904651078466838499e+03 2.990440947305044119e+03 2.936978234055150097e+03 3.009945957789650947e+03 2.949994203131473569e+03 3.010054561886478041e+03 2.943215553026544058e+03 2.991051135713833901e+03 2.918921787367943580e+03 2.955507459352875685e+03 2.881627971637276460e+03 2.908183446313370041e+03 2.837175088130876247e+03 2.855575210063942905e+03 2.791786440919652705e+03 2.805115041277198088e+03 2.751347575496965874e+03 2.764123824795691235e+03 2.720974854530716129e+03 2.738709568982491419e+03 2.704790631513717017e+03 2.732861538055122310e+03 2.705800012360463370e+03 2.747986489179641467e+03 2.725835614855457607e+03 2.783061743401210151e+03 2.765616843086281278e+03 2.835442488972805677e+03 2.825001944423835994e+03 2.902193633806687103e+03 2.903510758451519450e+03 2.981710036033716733e+03 3.001241544197894200e+03 3.075469156578071761e+03 3.120445174198346194e+03 3.190000000000000000e+03
2.390000000000000000e+03 2.419975320790595561e+03 2.463318757555810407e+03 2.463830401482504385e+03 2.521935243415635796e+03 2.500602855146918500e+03 2.577057647182281016e+03 2.537624020481419393e+03 2.633171875909912160e+03 2.578986428031614196e+03 2.692253503859067678e+03 2.626862918545888988e+03 2.754478992763124552e+03 2.681444886846031750e+03 2.818439320774431962e+03 2.740648978409109986e+03 2.881273415444230523e+03 2.800092321030010680e+03 2.938896303672881004e+03 2.853637377764048779e+03 2.986431020654157692e+03 2.894547004898619889e+03 3.018886524800890129e+03 2.917007010041834292e+03 3.032020608923694908e+03 2.917575514739153277e+03 3.023218499063663785e+03 2.896094413013937810e+03 2.992166747113892143e+03 2.855768031571187748e+03 2.941141868550880190e+03 2.802411775328414933e+03 2.874840249785873766e+03 2.743168552138622545e+03 2.799793384950015025e+03 2.685147924304877051e+03 2.723496163524230269e+03 2.634396182926921483e+03 2.653415809352129600e+03 2.595397038723704554e+03 2.596056833060556983e+03 2.571053958682755365e+03 2.556241474791647306e+03 2.562939578263177282e+03 2.536720673883122345e+03 2.571570780240795102e+03 2.538150663558888937e+03 2.596553158189185069e+03 2.559366029346002961e+03 2.636563946679007586e+03 2.597790012939176449e+03 2.689243259707867310e+03 2.649798453951501870e+03 2.751110266495694304e+03 2.710925610289949873e+03 2.817615855791959348e+03 2.775945802358505262e+03 2.883401215345268611e+03 2.839005162350950741e+03 2.942769008147765817e+03 2.894014503803782191e+03 2.990309711040406000e+03 2.935396106156555561e+03 3.021582257662835673e+03 2.959051615168486023e+03 3.033738924901693736e+03 2.963221902770893394e+03 3.026002093164932376e+03 2.948883767611500389e+03 2.999922549896111832e+03 2.919510980736726651e+03 2.959360921780084482e+03 2.880311792668035650e+03 2.910145520070856492e+03 2.837261804127303094e+03 2.859394894553593076e+03 2.796261570140738058e+03 2.814562137256599726e+03 2.762589582069617336e+03 2.782344447773292814e+03 2.740629528190997007e+03 2.767674456950938747e+03 2.733753779028836561e+03 2.773040627538094213e+03 2.744271717372801959e+03 2.798352091646815552e+03 2.773436847016019328e+03 2.841456033656259933e+03 2.821566603335164018e+03 2.899240675308901700e+03 2.888325394868422336e+03 2.969055750314122179e+03 2.973155731313922843e+03 3.049985708007282483e+03 3.075609118854615645e+03 3.143020468509968850e+03 3.194000000000000000e+03
