NCOLS 119
NROWS 32
xllcorner -2035500
yllcorner 920500
cellsize 1000.0 
NODATA_value -9999
1.775000000000000000e+03 1.766112319287637320e+03 1.761892789395857790e+03 1.761037506427401922e+03 1.762746165938495778e+03 1.766493587830536853e+03 1.771907673549116680e+03 1.778703288712677249e+03 1.786647320955551550e+03 1.795540506124473723e+03 1.805207903420341381e+03 1.815493690276201960e+03 1.826258072481442468e+03 1.837375228110750868e+03 1.848731772070182842e+03 1.860225505467379207e+03 1.871764344714073559e+03 1.883265384279643968e+03 1.894654072059166310e+03 1.905863485857536034e+03 1.916833702315115943e+03 1.927511249771187977e+03 1.937848635884156010e+03 1.947803940064446124e+03 1.957340460227921994e+03 1.966426403151332352e+03 1.975034607837379099e+03 1.983142291775903686e+03 1.990730810804401244e+03 1.997785424396853159e+03 2.004295059600762670e+03 2.010252068437895559e+03 2.015651975309322097e+03 2.020493212713802677e+03 2.024776845309634609e+03 2.028506283935666943e+03 2.031686992578924219e+03 2.034326192371008347e+03 2.036432567468863454e+03 2.038015978103135694e+03 2.039087186153979246e+03 2.039657598351366687e+03 2.039739031621010781e+03 2.039343504246567136e+03 2.038483055443319245e+03 2.037169594697718594e+03 2.035414780889622534e+03 2.033229929856569697e+03 2.030625947764168814e+03 2.027613286497704621e+03 2.024201916368213460e+03 2.020401310802934631e+03 2.016220437420843155e+03 2.011667750012562237e+03 2.006751176457279371e+03 2.001478098494633969e+03 1.995855320474093560e+03 1.989889025647688413e+03 1.983584720151351576e+03 1.976947166418110100e+03 1.969980309260566855e+03 1.962687199133474223e+03 1.955069918038169362e+03 1.947129514081951356e+03 1.938865950810378763e+03 1.930278077076207410e+03 1.921363622416841054e+03 1.912119221736027157e+03 1.902540471605283983e+03 1.892622018816760374e+03 1.882357680045291772e+03 1.871740589731481350e+03 1.860763371694652733e+03 1.849418328628388736e+03 1.837697642608023216e+03 1.825593579111132840e+03 1.813098686853167692e+03 1.800205985975612748e+03 1.786909137768793471e+03 1.773202590114316081e+03 1.759081694119637632e+03 1.744542788899741936e+03 1.729583253039319288e+03 1.714201522842015493e+03 1.698397078944692112e+03 1.682170404159127429e+03 1.665522916433167666e+03 1.648456881551831430e+03 1.630975310605375853e+03 1.613081847341391494e+03 1.594780650322900328e+03 1.576076274387920421e+03 1.556973555318617400e+03 1.537477500960393854e+03 1.517593191365321445e+03 1.497325689946905641e+03 1.476679967189717672e+03 1.455660838209101712e+03 1.434272915440519682e+03 1.412520577983423664e+03 1.390407959658211212e+03 1.367938958694443272e+03 1.345117273214493707e+03 1.321946468403234576e+03 1.298430083591872062e+03 1.274571790584057908e+03 1.250375618532683802e+03 1.225846265493385317e+03 1.200989521977296135e+03 1.175812836057671348e+03 1.150326049775131196e+03 1.124542326131709615e+03 1.098479249103381335e+03 1.072159965764340996e+03 1.045613840793197596e+03 1.018874433217419210e+03 9.919650932008735253e+02 9.648281349712848396e+02 9.370000000000000000e+02
1.798000000000000000e+03 1.782490846800144709e+03 1.774221808739960352e+03 1.770589067555771635e+03 1.770264524937651458e+03 1.772472243117407743e+03 1.776697930421374394e+03 1.782564562230375259e+03 1.789775200135450177e+03 1.798084710607382249e+03 1.807284669829837867e+03 1.817194621479703528e+03 1.827656561981965751e+03 1.838531163036996531e+03 1.849694995000573044e+03 1.861038373889663490e+03 1.872463630272358841e+03 1.883883685826749343e+03 1.895220867937577623e+03 1.906405916016593437e+03 1.917377145883209778e+03 1.928079745767362056e+03 1.938465181915048106e+03 1.948490694718512486e+03 1.958118868451481148e+03 1.967317259443895864e+03 1.976058069098231044e+03 1.984317849661462787e+03 1.992077232200537765e+03 1.999320667824320481e+03 2.006036174860666506e+03 2.012215086417339990e+03 2.017851794493355101e+03 2.022943488511507667e+03 2.027489887753541325e+03 2.031492968635005582e+03 2.034956689000532151e+03 2.037886712604899003e+03 2.040290137637205362e+03 2.042175233526530519e+03 2.043551190334970670e+03 2.044427884810408159e+03 2.044815666662664626e+03 2.044725167880811341e+03 2.044167136974599998e+03 2.043152298956597861e+03 2.041691240748042674e+03 2.039794320560511778e+03 2.037471598749305940e+03 2.034732786723998061e+03 2.031587209802466077e+03 2.028043779462108432e+03 2.024110970316117346e+03 2.019796797344414244e+03 2.015108789436527559e+03 2.010053956131472887e+03 2.004638745518009955e+03 1.998868992516697290e+03 1.992749858115327243e+03 1.986285761473777029e+03 1.979480308052329519e+03 1.972336217953847836e+03 1.964855259422771269e+03 1.957038192850605355e+03 1.948884730661298590e+03 1.940393518081176808e+03 1.931562139055773969e+03 1.922387150505004229e+03 1.912864146776505095e+03 1.902987854649802784e+03 1.892752257657734845e+03 1.882150746927312412e+03 1.871176294298694074e+03 1.859821642248062517e+03 1.848079504193121011e+03 1.835942768154182431e+03 1.823404696511940074e+03 1.810459114752690994e+03 1.797100582606067974e+03 1.783324541819427850e+03 1.769127435917901266e+03 1.754506798595959935e+03 1.739461308792465843e+03 1.723990811930470727e+03 1.708096308172332101e+03 1.691779909775039869e+03 1.675044770668404908e+03 1.657894992175614561e+03 1.640335509327400814e+03 1.622371962484690130e+03 1.604010558997878434e+03 1.585257929429800242e+03 1.566120982504499807e+03 1.546606762474541483e+03 1.526722312089054185e+03 1.506474543854443482e+03 1.485870121865736564e+03 1.464915356197772098e+03 1.443616111725061046e+03 1.421977733329915282e+03 1.400004989812420945e+03 1.377702039509613087e+03 1.355072421787676831e+03 1.332119080389561987e+03 1.308844427417037878e+03 1.285250460984276742e+03 1.261338956004947704e+03 1.237111757126337352e+03 1.212571216645389086e+03 1.187720839283011173e+03 1.162566219624357473e+03 1.137116383004581621e+03 1.111385657332840310e+03 1.085396209425055986e+03 1.059181480000194142e+03 1.032791668198646676e+03 1.006307614384720637e+03 9.798927388310021342e+02 9.540000000000000000e+02
1.808000000000000000e+03 1.791557581758375591e+03 1.781771417419756744e+03 1.776618360683406991e+03 1.774966315814250265e+03 1.776079334988109167e+03 1.779425540685520446e+03 1.784593421282388135e+03 1.791250709454355729e+03 1.799121706080096374e+03 1.807973447523124150e+03 1.817606551417048195e+03 1.827848766919155878e+03 1.838550211897115787e+03 1.849579731924321550e+03 1.860822046071315981e+03 1.872175469011187261e+03 1.883550069997154878e+03 1.894866171737511650e+03 1.906053118710749686e+03 1.917048261724021359e+03 1.927796117202778078e+03 1.938247667906201286e+03 1.948359777733052624e+03 1.958094697782008552e+03 1.967419644353652984e+03 1.976306432459259668e+03 1.984731150861143078e+03 1.992673866865451373e+03 2.000118351121631804e+03 2.007051814612108046e+03 2.013464651865647966e+03 2.019350186196814548e+03 2.024704414440592700e+03 2.029525750182210913e+03 2.033814765838079438e+03 2.037573935085846642e+03 2.040807378036619866e+03 2.043520612166497813e+03 2.045720312365758446e+03 2.047414083523092359e+03 2.048610248853064604e+03 2.049317656723555046e+03 2.049545508083322602e+03 2.049303205774641810e+03 2.048600226096500592e+03 2.047446012020034459e+03 2.045849886513062984e+03 2.043820983568263500e+03 2.041368193810306593e+03 2.038500121034966014e+03 2.035225045751042217e+03 2.031550891782819463e+03 2.027485192258483949e+03 2.023035051850812806e+03 2.018207102922875720e+03 2.013007454216705355e+03 2.007441631843336836e+03 2.001514513512174972e+03 1.995230258092762597e+03 1.988592233648076444e+03 1.981602947936148439e+03 1.974263985978424671e+03 1.966575959588076330e+03 1.958538473709679238e+03 1.950150114036669038e+03 1.941408459661855659e+03 1.932310123518398768e+03 1.922850822142667766e+03 1.913025474910207095e+03 1.902828331445279673e+03 1.892253124471282717e+03 1.881293244040160971e+03 1.869941927933130501e+03 1.858192462129619344e+03 1.846038384646920349e+03 1.833473685790829222e+03 1.820492997937538348e+03 1.807091768378198140e+03 1.793266409468839811e+03 1.779014421291736653e+03 1.764334483188171134e+03 1.749226511796736304e+03 1.733691684551343315e+03 1.717732428885947456e+03 1.701352378591383967e+03 1.684556299816620140e+03 1.667349990058864023e+03 1.649740154117157317e+03 1.631734261382366640e+03 1.613340389009942101e+03 1.594567055492867894e+03 1.575423048955644845e+03 1.555917254169419266e+03 1.536058481891541533e+03 1.515855303708498468e+03 1.495315895156008537e+03 1.474447889547520390e+03 1.453258244704503795e+03 1.431753124694765347e+03 1.409937798808953175e+03 1.387816560433227551e+03 1.365392669362396191e+03 1.342668322706802428e+03 1.319644662328613776e+03 1.296321831459501027e+03 1.272699101063147737e+03 1.248775099646761646e+03 1.224548201717550000e+03 1.200017164254888030e+03 1.175182152083401888e+03 1.150046362721046307e+03 1.124618533931825368e+03 1.098916637554502813e+03 1.072972941549462575e+03 1.046840650940732985e+03 1.020606416449775907e+03 9.944480726430304003e+02 9.690000000000000000e+02
1.807000000000000000e+03 1.793899043896810099e+03 1.784550120469933518e+03 1.778940542658265485e+03 1.776629354550027529e+03 1.777112905450343078e+03 1.779925659587207292e+03 1.784662955553288157e+03 1.790980080347324474e+03 1.798584799939835875e+03 1.807228953400469209e+03 1.816700860419246283e+03 1.826818953910077880e+03 1.837426596852839111e+03 1.848387911774043005e+03 1.859584435580988611e+03 1.870912433955698134e+03 1.882280739165341402e+03 1.893609002889534622e+03 1.904826278712708927e+03 1.915869867141711438e+03 1.926684370079372457e+03 1.937220912461234320e+03 1.947436497014550241e+03 1.957293464459635288e+03 1.966759036443311970e+03 1.975804922457328075e+03 1.984406975241606006e+03 1.992544881916705890e+03 2.000201880483321702e+03 2.007364493469560102e+03 2.014022272459080341e+03 2.020167549022819912e+03 2.025795189208179181e+03 2.030902350200231012e+03 2.035488239038751090e+03 2.039553874328514894e+03 2.043101852696764581e+03 2.046136122315377634e+03 2.048661766109691598e+03 2.050684797325218369e+03 2.052211969932951433e+03 2.053250605949774581e+03 2.053808441168648187e+03 2.053893490078449759e+03 2.053513929956559878e+03 2.052678003294271548e+03 2.051393936923152069e+03 2.049669875505997425e+03 2.047513826491193640e+03 2.044933613248817892e+03 2.041936832944823436e+03 2.038530815786838502e+03 2.034722582596615439e+03 2.030518798218263782e+03 2.025925719029434276e+03 2.020949133740099114e+03 2.015594297682670003e+03 2.009865861850223382e+03 2.003767798953821512e+03 1.997303329672450445e+03 1.990474852992478645e+03 1.983283885020745856e+03 1.975731010864144309e+03 1.967815854074659455e+03 1.959537067757945124e+03 1.950892350751687900e+03 1.941878491332438671e+03 1.932491439758304978e+03 1.922726409665169740e+03 1.912578006980139207e+03 1.902040383675898283e+03 1.891107412440809185e+03 1.879772877253259594e+03 1.868030673985885187e+03 1.855875014572885448e+03 1.843300627981928756e+03 1.830302951253083393e+03 1.816878304194274278e+03 1.803024041931780175e+03 1.788738680365638402e+03 1.774021990621423811e+03 1.758875059761018520e+03 1.743300316250408059e+03 1.727301519916861707e+03 1.710883717299667751e+03 1.694053164354244927e+03 1.676817219366164863e+03 1.659184209639655364e+03 1.641163276028907603e+03 1.622764199678678324e+03 1.603997215444871699e+03 1.584872816398613850e+03 1.565401553609474604e+03 1.545593835090339553e+03 1.525459727405301692e+03 1.505008763029336933e+03 1.484249756139298825e+03 1.463190629143922251e+03 1.441838251963367838e+03 1.420198295895991578e+03 1.398275103940039571e+03 1.376071579808920887e+03 1.353589098842059911e+03 1.330827446031254794e+03 1.307784790302110650e+03 1.284457711556530739e+03 1.260841310589526984e+03 1.236929456820637597e+03 1.212715273426138083e+03 1.188192037714627531e+03 1.163354804194771532e+03 1.138203241654883641e+03 1.112746299829429518e+03 1.087008685043226251e+03 1.061034365963329037e+03 1.034858343398252600e+03 1.008307790641359816e+03 9.800000000000000000e+02
1.804000000000000000e+03 1.792422414343197488e+03 1.783457597307322203e+03 1.777767105463074131e+03 1.775235779707179290e+03 1.775491681684886089e+03 1.778113075027808691e+03 1.782703282376130119e+03 1.788912812029864199e+03 1.796441487348082319e+03 1.805033717392749168e+03 1.814472054258482103e+03 1.824570948833281136e+03 1.835171318993904833e+03 1.846136037013376153e+03 1.857346259368906885e+03 1.868698469613721045e+03 1.880102103313560065e+03 1.891477639874889974e+03 1.902755065830632020e+03 1.913872632641925293e+03 1.924775847708029687e+03 1.935416649876600331e+03 1.945752730667579044e+03 1.955746970163115748e+03 1.965366962558009163e+03 1.974584611126915206e+03 1.983375776181750552e+03 1.991719962723742128e+03 1.999600037130055171e+03 2.007001964488662907e+03 2.013914560194651131e+03 2.020329251197666508e+03 2.026239843867680975e+03 2.031642296829311135e+03 2.036534498296637139e+03 2.040916048408100778e+03 2.044788047801869880e+03 2.048152894177097096e+03 2.051014088853767134e+03 2.053376055380085745e+03 2.055243972058062354e+03 2.056623619891066483e+03 2.057521246936636544e+03 2.057943449416036856e+03 2.057897069237068081e+03 2.057389106879836163e+03 2.056426647928858074e+03 2.055016800959289412e+03 2.053166644045607427e+03 2.050883176895334600e+03 2.048173275545589149e+03 2.045043646710924577e+03 2.041500779237364441e+03 2.037550890685296736e+03 2.033199867803613870e+03 2.028453200526711498e+03 2.023315910071151620e+03 2.017792472668760183e+03 2.011886741382894343e+03 2.005601869250491291e+03 1.998940237615614024e+03 1.991903393921422776e+03 1.984492003370846078e+03 1.976705818731766612e+03 1.968543672147644884e+03 1.960003492134565931e+03 1.951082348032807431e+03 1.941776523082319727e+03 1.932081616065780509e+03 1.921992670177151922e+03 1.911504326498620003e+03 1.900610998274717986e+03 1.889307061124534584e+03 1.877587053487707635e+03 1.865445881001691305e+03 1.852879018186228677e+03 1.839882700779689458e+03 1.826454102327983492e+03 1.812591489151332553e+03 1.798294348574328524e+03 1.783563486255683529e+03 1.768401089542684986e+03 1.752810754943431675e+03 1.736797478998025099e+03 1.720367612981115371e+03 1.703528782931399746e+03 1.686289777436313670e+03 1.668660406370321198e+03 1.650651334372802012e+03 1.632273893248456488e+03 1.613539877682588667e+03 1.594461328698395164e+03 1.575050309163734255e+03 1.555318675405624617e+03 1.535277848638738760e+03 1.514938589485484954e+03 1.494310778383547586e+03 1.473403204162245402e+03 1.452223362540178641e+03 1.430777265774021544e+03 1.409069264205234049e+03 1.387101880074498695e+03 1.364875653844263979e+03 1.342389003686814931e+03 1.319638100380174365e+03 1.296616763884501324e+03 1.273316396966803950e+03 1.249725990802425713e+03 1.225832278802842211e+03 1.201620202172775407e+03 1.177074037301923454e+03 1.152179944056666955e+03 1.126931623024139299e+03 1.101342980652736514e+03 1.075477262824755826e+03 1.049516976215316618e+03 1.023940992037328556e+03 1.000000000000000000e+03
1.801000000000000000e+03 1.788270189248523593e+03 1.778965328961817704e+03 1.773246954281996523e+03 1.770805992840420231e+03 1.771195456523137182e+03 1.773962761299267640e+03 1.778697286338021968e+03 1.785042818880179084e+03 1.792696143087648352e+03 1.801400841249153473e+03 1.810940088998511555e+03 1.821129920336851910e+03 1.831813440723020449e+03 1.842856049668095238e+03 1.854141575345554656e+03 1.865569177392769006e+03 1.877050874486420753e+03 1.888509570775058819e+03 1.899877476860439401e+03 1.911094841429002827e+03 1.922108927030473751e+03 1.932873177594215349e+03 1.943346536388664390e+03 1.953492881779651725e+03 1.963280554853497279e+03 1.972681958201268117e+03 1.981673209288356702e+03 1.990233835152017946e+03 1.998346497898211510e+03 2.005996742765224553e+03 2.013172762491887852e+03 2.019865173439893397e+03 2.026066800410216729e+03 2.031772468379078646e+03 2.036978800461841729e+03 2.041684022289005043e+03 2.045887773640456089e+03 2.049590928628043457e+03 2.052795425943438659e+03 2.055504110706689971e+03 2.057720589277755607e+03 2.059449098054200022e+03 2.060694386806610964e+03 2.061461616539309034e+03 2.061756271252515944e+03 2.061584082371013210e+03 2.060950964041094267e+03 2.059862957027490211e+03 2.058326178604767847e+03 2.056346775665446330e+03 2.053930878281592868e+03 2.051084551167889003e+03 2.047813740898910282e+03 2.044124217315117221e+03 2.040021508281266506e+03 2.035510827796738795e+03 2.030596998349460591e+03 2.025284369297414742e+03 2.019576733895372627e+03 2.013477248301940108e+03 2.006988356451124673e+03 2.000111725010123337e+03 1.992848192739672868e+03 1.985197738408220630e+03 1.977159470985120151e+03 1.968731645165778900e+03 1.959911704393074615e+03 1.950696352477685650e+03 1.941081653739246349e+03 1.931063160351880470e+03 1.920636064346811054e+03 1.909795370566231668e+03 1.898536085837276460e+03 1.886853418795767539e+03 1.874742984178933511e+03 1.862201005053866538e+03 1.849224506369118899e+03 1.835811493410614048e+03 1.821961109195410700e+03 1.807673765520217557e+03 1.792951243256986345e+03 1.777796758508214225e+03 1.762214992347118368e+03 1.746212083017957639e+03 1.729795580606019030e+03 1.712974365255939574e+03 1.695758530978691851e+03 1.678159237908015712e+03 1.660188536522583263e+03 1.641859167827313740e+03 1.623184343782405904e+03 1.604177512386855369e+03 1.584852111776243191e+03 1.565221317498398093e+03 1.545297786802707378e+03 1.525093403335380117e+03 1.504619025085395606e+03 1.483884237778121815e+03 1.462897115159237956e+03 1.441663986731181467e+03 1.420189212463949843e+03 1.398474962754722128e+03 1.376521000404810820e+03 1.354324459588447553e+03 1.331879614767843577e+03 1.309177630587976182e+03 1.286206282967898005e+03 1.262949644603251272e+03 1.239387741915855941e+03 1.215496233315874179e+03 1.191246279226571914e+03 1.166605110696402789e+03 1.141538775259250087e+03 1.116021527871389935e+03 1.090066269667137476e+03 1.063826222898733704e+03 1.037956826802800151e+03 1.015000000000000000e+03
1.796000000000000000e+03 1.780633659115514547e+03 1.770768094854210631e+03 1.765272239220328402e+03 1.763310635251856411e+03 1.764229137463186817e+03 1.767496956793735308e+03 1.772677273493422945e+03 1.779408740562605090e+03 1.787391462699680233e+03 1.796375545885738347e+03 1.806151654589053805e+03 1.816543308033244102e+03 1.827400677280527589e+03 1.838595641233099059e+03 1.850017870705248470e+03 1.861571735418609933e+03 1.873173860906435493e+03 1.884751194487689645e+03 1.896239468275671470e+03 1.907581971350775120e+03 1.918728562697338020e+03 1.929634871793463617e+03 1.940261645559129875e+03 1.950574209425134541e+03 1.960542017216699151e+03 1.970138269875803644e+03 1.979339587192061799e+03 1.988125719992242693e+03 1.996479292890409852e+03 2.004385569893763659e+03 2.011832237010086828e+03 2.018809197586262144e+03 2.025308377467800256e+03 2.031323538228790767e+03 2.036850097687907692e+03 2.041884957698656990e+03 2.046426339777871817e+03 2.050473629513750893e+03 2.054027230876164140e+03 2.057088431546752872e+03 2.059659280211235455e+03 2.061742476435926619e+03 2.063341273316544630e+03 2.064459392577757626e+03 2.065100951258606074e+03 2.065270398586068040e+03 2.064972461160316016e+03 2.064212094191441793e+03 2.062994436273904284e+03 2.061324765089216271e+03 2.059208451507080099e+03 2.056650909816798503e+03 2.053657542258484227e+03 2.050233676619522157e+03 2.046384496386260707e+03 2.042114963754456085e+03 2.037429736657031526e+03 2.032333081811769262e+03 2.026828786570227976e+03 2.020920073010028318e+03 2.014609518208231975e+03 2.007898984924992419e+03 2.000789566986197087e+03 1.993281553466816604e+03 1.985374415342814245e+03 1.977066817613000012e+03 1.968356659021177620e+03 1.959241140473718360e+03 1.949716862098478941e+03 1.939779947685048228e+03 1.929426194044330487e+03 1.918651241688412938e+03 1.907450762216741623e+03 1.895820656952597119e+03 1.883757260745725716e+03 1.871257544472217660e+03 1.858319309637602146e+03 1.844941368626200983e+03 1.831123704528174130e+03 1.816867605091995529e+03 1.802175766160310332e+03 1.787052360908734499e+03 1.771503072272120107e+03 1.755535087060212618e+03 1.739157051383869657e+03 1.722378988086375330e+03 1.705212177859552412e+03 1.687669006586243768e+03 1.669762782162642907e+03 1.651507524598223881e+03 1.632917733558747159e+03 1.614008137707830883e+03 1.594793430219899847e+03 1.575287994690898131e+03 1.555505625372881923e+03 1.535459245212145106e+03 1.515160624578780244e+03 1.494620102827592291e+03 1.473846313896003949e+03 1.452845915964750930e+03 1.431623323678529459e+03 1.410180439376349568e+03 1.388516376943666728e+03 1.366627167842897052e+03 1.344505432936872239e+03 1.322139994846955688e+03 1.299515392150941807e+03 1.276611236151908770e+03 1.253401319083459384e+03 1.229852332273036609e+03 1.205921969312829560e+03 1.181556033402078356e+03 1.156683800835945021e+03 1.131209731642672978e+03 1.104995021638707840e+03 1.077802042555226762e+03 1.049078880661543735e+03 1.017000000000000000e+03
1.784000000000000000e+03 1.767440676078583238e+03 1.758090022379566562e+03 1.753597131719804338e+03 1.752714675393895732e+03 1.754639509732183797e+03 1.758792220242987469e+03 1.764728463586591261e+03 1.772095943058616740e+03 1.780609681453793428e+03 1.790035881512201286e+03 1.800180513619591466e+03 1.810880881955577934e+03 1.821999248207235496e+03 1.833417952827774570e+03 1.845035654883051848e+03 1.856764417479446365e+03 1.868527436025254701e+03 1.880257256852152523e+03 1.891894371009012048e+03 1.903386096038524784e+03 1.914685679603665676e+03 1.925751574631644871e+03 1.936546847471467800e+03 1.947038689412530630e+03 1.957198008554707030e+03 1.966999084043596895e+03 1.976419268532012893e+03 1.985438727729982702e+03 1.994040208300066752e+03 2.002208827312014819e+03 2.009931878105888245e+03 2.017198648800006367e+03 2.024000250863176461e+03 2.030329456172137270e+03 2.036180541803296592e+03 2.041549142463198677e+03 2.046432110942336521e+03 2.050827387280640323e+03 2.054733877463006138e+03 2.058151342428304361e+03 2.061080297991327825e+03 2.063521925967145307e+03 2.065477996381218873e+03 2.066950800181768500e+03 2.067943091382418970e+03 2.068458037093977509e+03 2.068499173494517436e+03 2.068070365473784477e+03 2.067175767502927556e+03 2.065819783247549822e+03 2.064007021575514955e+03 2.061742246914642237e+03 2.059030322381634960e+03 2.055876144713483427e+03 2.052284570756636640e+03 2.048260336068914512e+03 2.043807967019088665e+03 2.038931688579556067e+03 2.033635330747781609e+03 2.027922237153250762e+03 2.021795179864863712e+03 2.015256284673223490e+03 2.008306971157959879e+03 2.000947911648925810e+03 1.993179012752148537e+03 1.984999422450482825e+03 1.976407564931556863e+03 1.967401204279850845e+03 1.957977537042811718e+03 1.948133312496744338e+03 1.937864978254193147e+03 1.927168847728425817e+03 1.916041284957211246e+03 1.904478901436196793e+03 1.892478758962102802e+03 1.880038572067218183e+03 1.867156903456886312e+03 1.853833345945528663e+03 1.840068684716448843e+03 1.825865034286419359e+03 1.811225945307832262e+03 1.796156477250523494e+03 1.780663234027859062e+03 1.764754360719640317e+03 1.748439500649443517e+03 1.731729713149844429e+03 1.714637353353280560e+03 1.697175916242959374e+03 1.679359847958248793e+03 1.661204327951434607e+03 1.642725026024508679e+03 1.623937838529863711e+03 1.604858608097365959e+03 1.585502831155944932e+03 1.565885357255229337e+03 1.546020083763874936e+03 1.525919648920383906e+03 1.505595125419228225e+03 1.485055715685102314e+03 1.464308448635847981e+03 1.443357875909090353e+03 1.422205762970307205e+03 1.400850766793525054e+03 1.379288086169655799e+03 1.357509061886310519e+03 1.335500689836953143e+03 1.313244986637241254e+03 1.290718107336116191e+03 1.267889044442064915e+03 1.244717608616709867e+03 1.221151143141927605e+03 1.197118915007694113e+03 1.172522001734216246e+03 1.147213823899298177e+03 1.120959760088717758e+03 1.093347137858078213e+03 1.063576384932610836e+03 1.030000000000000000e+03
1.759000000000000000e+03 1.746987194509770688e+03 1.740450745567057993e+03 1.738156962721152468e+03 1.739106243873122139e+03 1.742567097931852686e+03 1.748000325180233631e+03 1.754997250416567795e+03 1.763239504911359063e+03 1.772473301865750045e+03 1.782492467511313180e+03 1.793126808131262578e+03 1.804233867489522709e+03 1.815692938133548978e+03 1.827400628129405050e+03 1.839267531167021843e+03 1.851215694752174613e+03 1.863176673882274827e+03 1.875090018992762452e+03 1.886902089045077673e+03 1.898565110134342831e+03 1.910036420977043235e+03 1.921277861692816714e+03 1.932255273164651499e+03 1.942938082159679425e+03 1.953298953176257555e+03 1.963313492266433059e+03 1.972959991307221117e+03 1.982219203674636219e+03 1.991074144233696870e+03 1.999509908149231933e+03 2.007513504348474953e+03 2.015073700591181023e+03 2.022180878062795045e+03 2.028826894218233974e+03 2.035004953272890589e+03 2.040709484261605667e+03 2.045936026961389871e+03 2.050681126196961486e+03 2.054942235121051908e+03 2.058717627991282370e+03 2.062006322766390440e+03 2.064808013537871830e+03 2.067123012426332025e+03 2.068952200137883210e+03 2.070296983931152226e+03 2.071159261327776221e+03 2.071541387545740690e+03 2.071446144379361613e+03 2.070876708120679268e+03 2.069836614135406762e+03 2.068329715884327015e+03 2.066360136519834214e+03 2.063932211678147269e+03 2.061050422711029114e+03 2.057719320327276364e+03 2.053943439406271409e+03 2.049727206559744445e+03 2.045074842806166544e+03 2.039990264436635471e+03 2.034476985745643560e+03 2.028538027733579838e+03 2.022175837126899751e+03 2.015392220083005668e+03 2.008188294738095237e+03 2.000564466317996221e+03 1.992520427877480870e+03 1.984055188887993609e+03 1.975167132893114058e+03 1.965854104340297454e+03 1.956113523527749749e+03 1.945942527431446706e+03 1.935338133054677655e+03 1.924297418923941905e+03 1.912817719488095236e+03 1.900896826502086469e+03 1.888533191022409710e+03 1.875726119427228696e+03 1.862475956906813281e+03 1.848784252144235552e+03 1.834653897405640919e+03 1.820089238957148609e+03 1.805096153586506034e+03 1.789682087990817081e+03 1.773856058851939451e+03 1.757628612512177597e+03 1.741011744239429163e+03 1.724018778090897513e+03 1.706664209310908518e+03 1.688963512000567789e+03 1.670932915451448480e+03 1.652589153025967335e+03 1.633949187784190826e+03 1.615029919196850415e+03 1.595847875247828597e+03 1.576418894018073388e+03 1.556757798456978890e+03 1.536878067479844731e+03 1.516791505760615564e+03 1.496507913572433154e+03 1.476034756677504674e+03 1.455376834424831031e+03 1.434535941602853200e+03 1.413510515734501269e+03 1.392295255562897410e+03 1.370880687004720585e+03 1.349252637274935068e+03 1.327391551583492173e+03 1.305271541266798977e+03 1.282858971473341171e+03 1.260110250006448496e+03 1.236968207542332493e+03 1.213355950270007270e+03 1.189166116654988855e+03 1.164241791418196726e+03 1.138342885812895247e+03 1.111090890997238375e+03 1.081899978081351719e+03 1.050000000000000000e+03
1.728000000000000000e+03 1.721009507917345672e+03 1.718473312199480233e+03 1.719331006490424897e+03 1.722796887941123714e+03 1.728287122220521724e+03 1.735364662119509603e+03 1.743696873418425412e+03 1.753025176823180573e+03 1.763144062705504211e+03 1.773886712045312379e+03 1.785115088372320088e+03 1.796713023657362100e+03 1.808581316773205344e+03 1.820634199274636785e+03 1.832796742818505436e+03 1.845002924643463530e+03 1.857194159827542990e+03 1.869318169571658245e+03 1.881328094927941493e+03 1.893181792377321926e+03 1.904841265996516995e+03 1.916272203542640682e+03 1.927443592509458767e+03 1.938327398318342148e+03 1.948898291135091768e+03 1.959133410919270773e+03 1.969012162605264166e+03 1.978516035051487052e+03 1.987628438757949652e+03 1.996334558463805251e+03 2.004621217672377270e+03 2.012476752956540622e+03 2.019890896594592505e+03 2.026854666682842435e+03 2.033360264363549732e+03 2.039400978188198224e+03 2.044971095898388057e+03 2.050065824044007968e+03 2.054681215869671178e+03 2.058814107790667549e+03 2.062462064560744693e+03 2.065623332924802526e+03 2.068296803175201603e+03 2.070481977621189799e+03 2.072178944570601288e+03 2.073388356046631088e+03 2.074111407154387052e+03 2.074349814803155823e+03 2.074105793406816247e+03 2.073382025245115528e+03 2.072181623382594807e+03 2.070508085409890100e+03 2.068365236784003173e+03 2.065757163179902363e+03 2.062688131996455922e+03 2.059162503948469293e+03 2.055184636481092639e+03 2.050758781517452917e+03 2.045888980748812628e+03 2.040578962254806584e+03 2.034832042660248135e+03 2.028651039262846552e+03 2.022038196580633667e+03 2.014995131557576315e+03 2.007522801231198173e+03 1.999621496019600272e+03 1.991290860950983188e+03 1.982529946171018992e+03 1.973337286964990653e+03 1.963711012371589277e+03 1.953648980296334685e+03 1.943148935908196790e+03 1.932208689074559061e+03 1.920826305703863454e+03 1.909000307161596993e+03 1.896729871434185725e+03 1.884015029456791126e+03 1.870856850003581712e+03 1.857257606760001636e+03 1.843220921642073790e+03 1.828751879074206499e+03 1.813857106752239361e+03 1.798544819364148225e+03 1.782824822774256972e+03 1.766708477253403089e+03 1.750208619413045653e+03 1.733339443534039901e+03 1.716116343933108510e+03 1.698555720849982663e+03 1.680674753040287669e+03 1.662491140804856514e+03 1.644022823563417660e+03 1.625287676283585370e+03 1.606303189103597333e+03 1.587086134340856006e+03 1.567652224759748151e+03 1.548015766479340527e+03 1.528189309222961128e+03 1.508183295717868077e+03 1.488005710882739095e+03 1.467661729876990194e+03 1.447153361917850134e+03 1.426479083625390103e+03 1.405633450878401391e+03 1.384606670612671678e+03 1.363384101667676987e+03 1.341945633171753798e+03 1.320264853844897971e+03 1.298307865048357371e+03 1.276031485342576161e+03 1.253380412710662767e+03 1.230282603907963903e+03 1.206641644536280637e+03 1.182324231496669654e+03 1.157140407591002713e+03 1.130815099259767067e+03 1.102953605646141796e+03 1.073000000000000000e+03
1.691000000000000000e+03 1.690533749239009921e+03 1.693014633757363754e+03 1.697766317433201948e+03 1.704290016164887447e+03 1.712204806890654936e+03 1.721218327669145992e+03 1.731104484934309539e+03 1.741685596778930858e+03 1.752818912366246195e+03 1.764386957400813571e+03 1.776290828195388258e+03 1.788445588176940191e+03 1.800777100062025511e+03 1.813219818097318466e+03 1.825715218422190446e+03 1.838210655352178946e+03 1.850658505267925648e+03 1.863015508064236428e+03 1.875242247213301198e+03 1.887302729445334990e+03 1.899164037861661200e+03 1.910796040558089999e+03 1.922171142198093548e+03 1.933264069483131379e+03 1.944051683791419237e+03 1.954512815828670455e+03 1.964628118235914144e+03 1.974379932913080211e+03 1.983752170459692707e+03 1.992730199677731889e+03 2.001300745566913520e+03 2.009451794687461188e+03 2.017172507172653013e+03 2.024453135035704236e+03 2.031284946720007838e+03 2.037660158073485945e+03 2.043571870073114951e+03 2.049014013674394846e+03 2.053981302107981264e+03 2.058469190793813141e+03 2.062473844801053019e+03 2.065992113466142655e+03 2.069021511414003726e+03 2.071560204836444427e+03 2.073607001498418867e+03 2.075161342599387353e+03 2.076223294345471913e+03 2.076793536917073652e+03 2.076873348469869597e+03 2.076464581901283964e+03 2.075569632358045965e+03 2.074191393852262536e+03 2.072333203882953057e+03 2.069998775606974505e+03 2.067192117839029379e+03 2.063917443948972050e+03 2.060179071524688879e+03 2.055981315436176374e+03 2.051328377626387010e+03 2.046224237524510727e+03 2.040672547389812962e+03 2.034676537118419219e+03 2.028238933059833926e+03 2.021361895183463957e+03 2.014046976508145690e+03 2.006295108071454251e+03 1.998106611893142826e+03 1.989481243411257310e+03 1.980418263781327141e+03 1.970916541275779764e+03 1.960974679853346061e+03 1.950591171838583477e+03 1.939764570610160035e+03 1.928493678289143190e+03 1.916777742684839041e+03 1.904616657226684310e+03 1.892011157307505528e+03 1.878963006396536912e+03 1.865475165449332280e+03 1.851551939534936764e+03 1.837199096197395193e+03 1.822423950839538293e+03 1.807235415326056909e+03 1.791644007009610277e+03 1.775661816445173827e+03 1.759302433130789495e+03 1.742580829655868456e+03 1.725513205613274067e+03 1.708116793505591431e+03 1.690409629622314924e+03 1.672410293462702157e+03 1.654137619715107121e+03 1.635610387070418710e+03 1.616846988243214128e+03 1.597865085502402962e+03 1.578681255779532421e+03 1.559310629034576777e+03 1.539766523021092098e+03 1.520060076904119342e+03 1.500199885331493988e+03 1.480191633505169193e+03 1.460037732465403678e+03 1.439736952037942956e+03 1.419284046434343509e+03 1.398669363874844294e+03 1.377878426049895324e+03 1.356891454518659430e+03 1.335682807407799828e+03 1.314220268499626854e+03 1.292464099202254147e+03 1.270365720628627059e+03 1.247865842865710647e+03 1.224891823055604618e+03 1.201354072491429406e+03 1.177141590134704074e+03 1.152117631800063009e+03 1.126120622244162860e+03 1.099000000000000000e+03
1.650000000000000000e+03 1.657071205600062058e+03 1.665206041826197634e+03 1.674311400201102515e+03 1.684235278953777879e+03 1.694829126884483685e+03 1.705967705579592575e+03 1.717549446560069100e+03 1.729491153849196962e+03 1.741722576888104868e+03 1.754182357504578476e+03 1.766815372489441415e+03 1.779571108380611577e+03 1.792402704432719020e+03 1.805266395211315512e+03 1.818121178400779172e+03 1.830928602729218255e+03 1.843652616146560376e+03 1.856259441965337601e+03 1.868717466696037263e+03 1.880997132229603494e+03 1.893070829743111972e+03 1.904912795020769408e+03 1.916499005858599503e+03 1.927807082482322130e+03 1.938816191816124729e+03 1.949506956203766777e+03 1.959861366921140416e+03 1.969862702595770770e+03 1.979495452495296377e+03 1.988745244573766513e+03 1.997598778167247474e+03 2.006043761294529077e+03 2.014068852624008741e+03 2.021663608289929016e+03 2.028818433854854220e+03 2.035524541796728954e+03 2.041773914927633768e+03 2.047559276112145426e+03 2.052874064537204049e+03 2.057712418591127971e+03 2.062069165142965176e+03 2.065939814688208571e+03 2.069320561462969636e+03 2.072208287251175989e+03 2.074600567246908213e+03 2.076495676016822472e+03 2.077892591365247426e+03 2.078790993763725965e+03 2.079191258989363632e+03 2.079094441737539455e+03 2.078502248241514280e+03 2.077416996342452421e+03 2.075841561997265217e+03 2.073779311868368040e+03 2.071234022380490842e+03 2.068209786419912689e+03 2.064710909650554186e+03 2.060741799186263961e+03 2.056306848045821425e+03 2.051410319385398907e+03 2.046056234915720324e+03 2.040248272137990625e+03 2.033989675052681832e+03 2.027283182797255677e+03 2.020130980252652989e+03 2.012534674034822046e+03 2.004495296478242608e+03 1.996013339254718630e+03 1.987088817192069428e+03 1.977721361709441680e+03 1.967910342118180552e+03 1.957655011900298859e+03 1.946954676020004172e+03 1.935808874393120959e+03 1.924217575874255544e+03 1.912181376553882728e+03 1.899701695809595094e+03 1.886780963439664674e+03 1.873422791324359423e+03 1.859632123402304387e+03 1.845415358297113016e+03 1.830780439656686212e+03 1.815736910140351256e+03 1.800295925968816846e+03 1.784470229997351453e+03 1.768274082341370558e+03 1.751723148634652489e+03 1.734834346995526630e+03 1.717625655681781836e+03 1.700115884202547022e+03 1.682324411303124634e+03 1.664270893731571050e+03 1.645974950025553426e+03 1.627455823723174035e+03 1.608732030407158163e+03 1.589820992849496861e+03 1.570738668251201943e+03 1.551499171194031533e+03 1.532114395470991440e+03 1.512593637483971179e+03 1.492943223449434072e+03 1.473166142319991195e+03 1.453261686233549881e+03 1.433225100635708259e+03 1.413047247313834305e+03 1.392714286041421474e+03 1.372207385571916802e+03 1.351502484890456344e+03 1.330570146421784557e+03 1.309375586119399713e+03 1.287879055648689018e+03 1.266036936720994390e+03 1.243804263228592163e+03 1.221139971359827996e+03 1.198016718157561854e+03 1.174435569933005581e+03 1.150432642269575354e+03 1.126000000000000000e+03
1.608000000000000000e+03 1.622509521072685857e+03 1.636356079771547911e+03 1.649932117654151170e+03 1.663370231091946607e+03 1.676734525856857090e+03 1.690066661551233210e+03 1.703395005446011965e+03 1.716736367394907575e+03 1.730097121304205302e+03 1.743474731584205074e+03 1.756859507937514536e+03 1.770236323454613284e+03 1.783586138573476774e+03 1.796887270586597197e+03 1.810116406525408138e+03 1.823249385374917438e+03 1.836261785728776886e+03 1.849129355770118764e+03 1.861828318973724663e+03 1.874335583932809641e+03 1.886628881583000293e+03 1.898686848424371874e+03 1.910489070335007455e+03 1.922016098246817137e+03 1.933249444260085511e+03 1.944171564626987674e+03 1.954765834354652270e+03 1.965016516890971616e+03 1.974908731395436689e+03 1.984428419404370743e+03 1.993562312222169567e+03 2.002297900058763162e+03 2.010623403743212748e+03 2.018527749732198117e+03 2.026000549062075606e+03 2.033032080830937048e+03 2.039613280715155497e+03 2.045735734902573995e+03 2.051391679648642821e+03 2.056574006427379118e+03 2.061276272358980350e+03 2.065492715260942987e+03 2.069218272306934068e+03 2.072448600910242021e+03 2.075180100102716551e+03 2.077409930383821120e+03 2.079136029795307422e+03 2.080357123860115735e+03 2.081072727029764337e+03 2.081283133426760287e+03 2.080989394953741339e+03 2.080193285266863313e+03 2.078897248666102314e+03 2.077104333619686258e+03 2.074818111385873635e+03 2.072042580988189457e+03 2.068782062600706013e+03 2.065041082165770604e+03 2.060824250755373214e+03 2.056136142758567985e+03 2.050981177395005489e+03 2.045363508289180118e+03 2.039286925870333562e+03 2.032754777177662163e+03 2.025769907248682557e+03 2.018334625660318579e+03 2.010450700997791273e+03 2.002119385075744276e+03 1.993341467667105235e+03 1.984117361352224862e+03 1.974447214931935378e+03 1.964331052703023488e+03 1.953768935822011827e+03 1.942761141028446673e+03 1.931308351202037329e+03 1.919411851621440064e+03 1.907073725399839759e+03 1.894297041407573033e+03 1.881086028058422016e+03 1.867446226627281703e+03 1.853384618266617053e+03 1.838909719572949825e+03 1.824031642391069909e+03 1.808762114496083086e+03 1.793114458821800781e+03 1.777103529967047507e+03 1.760745607768496484e+03 1.744058248741322359e+03 1.727060097122793650e+03 1.709770658079645273e+03 1.692210036334387496e+03 1.674398644012172554e+03 1.656356881899206201e+03 1.638104798534297970e+03 1.619661731633664203e+03 1.601045936291334783e+03 1.582274204230606301e+03 1.563361478148010519e+03 1.544320464953652390e+03 1.525161251566397596e+03 1.505890927016039768e+03 1.486513215166026384e+03 1.467028123762876703e+03 1.447431618331050458e+03 1.427715334641469781e+03 1.407866352752523198e+03 1.387867071881964421e+03 1.367695253957303976e+03 1.347324354736820169e+03 1.326724354825719956e+03 1.305863479264020043e+03 1.284711538010533332e+03 1.263246308111911503e+03 1.241465782011177680e+03 1.219411964910058714e+03 1.197217495455738572e+03 1.175195699729910075e+03 1.154000000000000000e+03
1.568000000000000000e+03 1.588579401702277210e+03 1.607714003155714408e+03 1.625597199664107393e+03 1.642454977006928175e+03 1.658518186685697628e+03 1.673986349593542400e+03 1.689016132105321049e+03 1.703723305826005799e+03 1.718189397952780382e+03 1.732468973435455609e+03 1.746596067387177754e+03 1.760589405060551371e+03 1.774456468898277308e+03 1.788196599453523049e+03 1.801803330144050051e+03 1.815266130666752133e+03 1.828571700396230653e+03 1.841704921956755243e+03 1.854649559406125263e+03 1.867388765220154937e+03 1.879905444708061623e+03 1.892182514650656458e+03 1.904203083968777719e+03 1.915950577404803198e+03 1.927408818006357023e+03 1.938562080244695608e+03 1.949395122590211031e+03 1.959893206088546776e+03 1.970042103771095526e+03 1.979828104468273523e+03 1.989238013673814748e+03 1.998259153452120700e+03 2.006879362919979712e+03 2.015087000510262214e+03 2.022870948988414511e+03 2.030220624000613270e+03 2.037125986751133951e+03 2.043577561210036947e+03 2.049566456023361752e+03 2.055084391028219670e+03 2.060123727964430145e+03 2.064677504630658404e+03 2.068739471371328364e+03 2.072304128421324094e+03 2.075366762303062842e+03 2.077923479191001206e+03 2.079971232958009750e+03 2.081507845519826333e+03 2.082532017117207033e+03 2.083043324333587861e+03 2.083042203944723042e+03 2.082529921133454081e+03 2.081508521166062565e+03 2.079980764297117730e+03 2.077950044419786536e+03 2.075420292774495920e+03 2.072395868832044926e+03 2.068881441236433147e+03 2.064881862386177090e+03 2.060402040810832204e+03 2.055446815926296495e+03 2.050020839998840074e+03 2.044128472192489198e+03 2.037773689405470577e+03 2.030960018217305333e+03 2.023690491677722321e+03 2.015967633890981460e+03 2.007793474412990236e+03 1.999169593420299861e+03 1.990097197472529388e+03 1.980577224519885476e+03 1.970610475654044649e+03 1.960197770011896637e+03 1.949340118262832675e+03 1.938038909281583528e+03 1.926296103963352380e+03 1.914114429701030531e+03 1.901497568831021454e+03 1.888450334370233122e+03 1.874978826607617066e+03 1.861090564565528439e+03 1.846794586986800368e+03 1.832101518303409421e+03 1.817023595967044457e+03 1.801574656532248582e+03 1.785770078938653796e+03 1.769626684499952489e+03 1.753162594135145810e+03 1.736397044337192256e+03 1.719350164235054990e+03 1.702042716842584923e+03 1.684495808183654844e+03 1.666730568426550690e+03 1.648767809449162314e+03 1.630627663396310709e+03 1.612329206799059648e+03 1.593890074734778864e+03 1.575326069367927630e+03 1.556650767106851163e+03 1.537875128669773858e+03 1.519007116775983377e+03 1.500051327287016193e+03 1.481008641929971873e+03 1.461875915063282036e+03 1.442645714619342243e+03 1.423306150522739699e+03 1.403840846030611374e+03 1.384229144334156445e+03 1.364446704135417804e+03 1.344466741027923945e+03 1.324262349558016012e+03 1.303810665782177466e+03 1.283100281095718401e+03 1.262144801324442597e+03 1.241009343612618977e+03 1.219868473957310243e+03 1.199153747914139103e+03 1.180000000000000000e+03
1.530000000000000000e+03 1.556066732852070345e+03 1.580268776729446927e+03 1.602206225923372585e+03 1.622226311652491859e+03 1.640762945886951911e+03 1.658185136804942431e+03 1.674775973101988257e+03 1.690743599583247942e+03 1.706237454021353415e+03 1.721362786207586851e+03 1.736192131132491340e+03 1.750773972570617389e+03 1.765139168351365242e+03 1.779305685226017658e+03 1.793282083601311570e+03 1.807070084060550244e+03 1.820666459692490434e+03 1.834064432195371637e+03 1.847254701606796743e+03 1.860226204831664290e+03 1.872966673149202506e+03 1.885463040767760958e+03 1.897701743255905058e+03 1.909668934907223957e+03 1.921350646820240627e+03 1.932732902017640754e+03 1.943801799817707888e+03 1.954543578570139744e+03 1.964944663536251028e+03 1.974991704950571147e+03 1.984671610010249424e+03 1.993971571592761620e+03 2.002879095814051652e+03 2.011382030036484593e+03 2.019468592558909904e+03 2.027127404920419394e+03 2.034347527485214869e+03 2.041118498718288492e+03 2.047430378289494001e+03 2.053273793845508862e+03 2.058639990962586580e+03 2.063520885443375846e+03 2.067909116761226869e+03 2.071798101103771842e+03 2.075182082146649918e+03 2.078056177422534802e+03 2.080416417964714583e+03 2.082259778820640804e+03 2.083584198067488614e+03 2.084388582131371095e+03 2.084672795519839383e+03 2.084437633521053613e+03 2.083684776991582112e+03 2.082416729028901045e+03 2.080636734077595520e+03 2.078348680816916385e+03 2.075556990983929154e+03 2.072266497060525580e+03 2.068482312452927545e+03 2.064209698379805559e+03 2.059453932124276889e+03 2.054220181566588508e+03 2.048513390976640494e+03 2.042338182896158287e+03 2.035698780576805348e+03 2.028598954870590887e+03 2.021041998710434200e+03 2.013030731398790067e+03 2.004567533876017478e+03 1.995654415009148352e+03 1.986293107771761925e+03 1.976485193024673663e+03 1.966232247502880455e+03 1.955536011611832919e+03 1.944398571776240260e+03 1.932822551401330202e+03 1.920811304025898380e+03 1.908369101985638963e+03 1.895501313871567845e+03 1.882214564259552162e+03 1.868516869591378509e+03 1.854417744685365051e+03 1.839928275117809562e+03 1.825061151612448612e+03 1.809830663566393014e+03 1.794252649888242559e+03 1.778344406387481285e+03 1.762124549995160123e+03 1.745612841078673682e+03 1.728829966006444010e+03 1.711797282895346598e+03 1.694536534114507958e+03 1.677069529610562086e+03 1.659417805456168026e+03 1.641602262209333730e+03 1.623642787720683145e+03 1.605557868968984394e+03 1.587364197392734241e+03 1.569076272100222013e+03 1.550706005415003801e+03 1.532262335660644112e+03 1.513750853247860960e+03 1.495173448541839207e+03 1.476527994520173706e+03 1.457808085239152206e+03 1.439002864702739998e+03 1.420097003014485381e+03 1.401070912160823582e+03 1.381901348233123827e+03 1.362562626507737605e+03 1.343028783600952011e+03 1.323277148023433256e+03 1.303293887689189432e+03 1.283082082641756415e+03 1.262672413443497135e+03 1.242134247376750409e+03 1.221571514289214292e+03 1.201000000000000000e+03
1.490000000000000000e+03 1.525395346969928141e+03 1.555041462639832844e+03 1.580662911715968676e+03 1.603388743158719990e+03 1.624007617104865858e+03 1.643079131419908435e+03 1.661001889000988740e+03 1.678060217213871965e+03 1.694456969145715448e+03 1.710336607306030146e+03 1.725801481849884567e+03 1.740923367834741839e+03 1.755751702856708562e+03 1.770319518243004950e+03 1.784647744950350898e+03 1.798748362587269639e+03 1.812626716276883599e+03 1.826283229021669740e+03 1.839714671259637726e+03 1.852915103963695628e+03 1.865876580044272487e+03 1.878589666461999968e+03 1.891043833392503757e+03 1.903227745068388231e+03 1.915129478265755552e+03 1.926736687938041541e+03 1.938036734637453719e+03 1.949016784692906185e+03 1.959663891340894452e+03 1.969965062918894318e+03 1.979907322669266250e+03 1.989477763540931846e+03 1.998663600517147643e+03 2.007452222359813959e+03 2.015831244177574263e+03 2.023788561842032323e+03 2.031312408950253939e+03 2.038391416728814875e+03 2.045014676971615245e+03 2.051171807786497993e+03 2.056853021589643959e+03 2.062049194435307072e+03 2.066751935412614785e+03 2.070953654497598109e+03 2.074647626938320627e+03 2.077828051997050807e+03 2.080490103699281008e+03 2.082629971166478754e+03 2.084244886155440327e+03 2.085333135604199015e+03 2.085894057297919517e+03 2.085928017215656837e+03 2.085436367689673716e+03 2.084421386184582389e+03 2.082886195257798136e+03 2.080834665063418925e+03 2.078271300571660049e+03 2.075201116455566080e+03 2.071629503305410253e+03 2.067562089430092783e+03 2.063004602958661053e+03 2.057962739234365017e+03 2.052442038576433333e+03 2.046447779357693207e+03 2.039984891005923146e+03 2.033057890989867019e+03 2.025670849113660552e+03 2.017827381541820159e+03 2.009530675944555924e+03 2.000783548030314250e+03 1.991588528563844875e+03 1.981947978800851615e+03 1.971864231151744661e+03 1.961339750862306801e+03 1.950377313609186785e+03 1.938980193188003113e+03 1.927152352948725820e+03 1.914898634325611965e+03 1.902224935726521835e+03 1.889138375188723330e+03 1.875647430565767081e+03 1.861762051564689500e+03 1.847493738679255330e+03 1.832855584931705835e+03 1.817862277306771375e+03 1.802530055799008096e+03 1.786876629058470371e+03 1.770921046671684053e+03 1.754683529118499109e+03 1.738185257367895474e+03 1.721448124889080646e+03 1.704494455535644875e+03 1.687346691293775166e+03 1.670027054261149260e+03 1.652557187439645986e+03 1.634957778990406496e+03 1.617248174534570808e+03 1.599445981925193109e+03 1.581566672730180017e+03 1.563623184559278116e+03 1.545625528514319740e+03 1.527580406723873239e+03 1.509490846597436530e+03 1.491355861829171772e+03 1.473170156440185565e+03 1.454923899010263312e+03 1.436602612212799158e+03 1.418187251014179765e+03 1.399654584290495677e+03 1.380978047702494905e+03 1.362129282103697733e+03 1.343080540232173007e+03 1.323807815594174372e+03 1.304293333659804375e+03 1.284522644282261354e+03 1.264464458890090555e+03 1.244018227283793294e+03 1.223000000000000000e+03
1.459000000000000000e+03 1.500453589499231157e+03 1.533799723522619388e+03 1.561956858514452961e+03 1.586580834851296004e+03 1.608703821898900287e+03 1.629008011079972675e+03 1.647960852014699185e+03 1.665890084140837189e+03 1.683028900608580443e+03 1.699544684322135481e+03 1.715558027328974504e+03 1.731155701853605251e+03 1.746399719299834942e+03 1.761333779405536461e+03 1.775987932144717206e+03 1.790381988109674467e+03 1.804528035983730888e+03 1.818432313224936252e+03 1.832096602714570963e+03 1.845519279034090005e+03 1.858696094373048027e+03 1.871620770453035220e+03 1.884285445932052426e+03 1.896681016406893832e+03 1.908797394982755122e+03 1.920623714519462965e+03 1.932148487476970786e+03 1.943359735342993190e+03 1.954245096630135322e+03 1.964791920157615550e+03 1.974987348617194129e+03 1.984818396135148078e+03 1.994272022579136092e+03 2.003335206636744715e+03 2.011995019142516639e+03 2.020238697695757310e+03 2.028053723246925529e+03 2.035427899000790603e+03 2.042349431664631538e+03 2.048807014744041680e+03 2.054789913251016515e+03 2.060288048840985539e+03 2.065292084046706805e+03 2.069793503942819370e+03 2.073784693275080826e+03 2.077259006844868509e+03 2.080210830774993610e+03 2.082635632217997227e+03 2.084529995120176409e+03 2.085891639835683236e+03 2.086719424700571835e+03 2.087013328124557120e+03 2.086774410328469457e+03 2.086004754530016726e+03 2.084707388134215762e+03 2.082886185286311047e+03 2.080545752957935292e+03 2.077691303522583439e+03 2.074328517494199787e+03 2.070463400714223098e+03 2.066102140742567826e+03 2.061250967507040968e+03 2.055916023371027677e+03 2.050103247676894171e+03 2.043818280507906820e+03 2.037066389889820130e+03 2.029852425939767272e+03 2.022180804588960200e+03 2.014055522489297346e+03 2.005480203601267931e+03 1.996458176795179497e+03 1.986992582626132844e+03 1.977086506312118217e+03 1.966743132899317061e+03 1.955965919680474826e+03 1.944758780176820437e+03 1.933126273429918911e+03 1.921073791997274611e+03 1.908607741915489214e+03 1.895735707989083039e+03 1.882466598074261810e+03 1.868810760539005059e+03 1.854780069770371256e+03 1.840387975437067780e+03 1.825649512165757187e+03 1.810581267315684272e+03 1.795201305599172429e+03 1.779529050356721427e+03 1.763585122317876085e+03 1.747391137628797651e+03 1.730969467774532177e+03 1.714342964743020730e+03 1.697534655348836850e+03 1.680567409042839699e+03 1.663463583770683272e+03 1.646244654506102506e+03 1.628930828979390526e+03 1.611540654863029431e+03 1.594090622295510002e+03 1.576594765175424072e+03 1.559064264234916664e+03 1.541507054664529733e+03 1.523927441280690573e+03 1.506325725355209670e+03 1.488697850012125855e+03 1.471035076759898629e+03 1.453323716196172882e+03 1.435544954102614156e+03 1.417674843932158183e+03 1.399684581618464790e+03 1.381541235024957132e+03 1.363209129566662341e+03 1.344651914263723484e+03 1.325834227689157615e+03 1.306717045418097314e+03 1.287221267372377952e+03 1.267056443138837039e+03 1.245000000000000000e+03
1.442000000000000000e+03 1.483603312048602220e+03 1.517715130923409106e+03 1.546736426629031939e+03 1.572210970806559999e+03 1.595140820979298496e+03 1.616195581648976713e+03 1.635836554137758867e+03 1.654389741669668183e+03 1.672089934979932195e+03 1.689108389338003917e+03 1.705570917530485985e+03 1.721570159900490580e+03 1.737174164823017009e+03 1.752432536137756642e+03 1.767380918711066442e+03 1.782044315280447336e+03 1.796439562294332745e+03 1.810577190047198883e+03 1.824462826507658974e+03 1.838098260260026564e+03 1.851482247658290134e+03 1.864611127783299708e+03 1.877479293168999220e+03 1.890079552690036735e+03 1.902403414299750921e+03 1.914441308689815287e+03 1.926182769874849555e+03 1.937616584810867607e+03 1.948730921163947187e+03 1.959513440053231307e+03 1.969951398845824087e+03 1.980031747758595202e+03 1.989741223025022919e+03 1.999066438632817608e+03 2.007993978062932456e+03 2.016510487006786434e+03 2.024602767660924656e+03 2.032257874861484424e+03 2.039463213999119489e+03 2.046206640332121196e+03 2.052476558984124495e+03 2.058262024573964482e+03 2.063552839087332814e+03 2.068339646277163411e+03 2.072614020590892778e+03 2.076368548389135867e+03 2.079596899063733417e+03 2.082293883603977974e+03 2.084455498215203988e+03 2.086078950775979138e+03 2.087162668234551347e+03 2.087706283490542319e+03 2.087710600874668671e+03 2.087177540010533448e+03 2.086110058593832036e+03 2.084512055425144354e+03 2.082388255847400615e+03 2.079744082529808566e+03 2.076585515266899165e+03 2.072918944086221018e+03 2.068751020445663926e+03 2.064088511621573616e+03 2.058938163518420424e+03 2.053306577054941954e+03 2.047200102994709141e+03 2.040624759594905527e+03 2.033586176759472664e+03 2.026089569524399622e+03 2.018139742704800028e+03 2.009741127433150496e+03 2.000897849158265444e+03 1.991613825500860230e+03 1.981892891220310503e+03 1.971738946483538939e+03 1.961156123682603720e+03 1.950148967258987113e+03 1.938722620389456097e+03 1.926883011992360707e+03 1.914637037337156698e+03 1.901992725587451787e+03 1.888959387873588412e+03 1.875547739960730041e+03 1.861769994230989141e+03 1.847639916505314886e+03 1.833172844159551005e+03 1.818385663002860611e+03 1.803296741447252771e+03 1.787925821565740307e+03 1.772293867676321042e+03 1.756422874064451207e+03 1.740335634336233170e+03 1.724055475650130120e+03 1.707605961682714678e+03 1.691010568623548352e+03 1.674292338748966131e+03 1.657473516179868511e+03 1.640575169271647610e+03 1.623616803702389461e+03 1.606615969705174621e+03 1.589587866017503529e+03 1.572544941982120008e+03 1.555496497821398862e+03 1.538448281433855300e+03 1.521402078188252517e+03 1.504355288299406311e+03 1.487300484917610902e+03 1.470224946148885920e+03 1.453110158456832323e+03 1.435931303551042220e+03 1.418656781330462763e+03 1.401247926437486967e+03 1.383659345267333720e+03 1.365840995616904593e+03 1.347744940903699444e+03 1.329344388695677708e+03 1.310684123984724465e+03 1.292005011656705392e+03 1.274000000000000000e+03
1.436000000000000000e+03 1.474231971112165866e+03 1.506696030814458936e+03 1.535025402336474372e+03 1.560336373625161968e+03 1.583391685787404640e+03 1.604724246949167082e+03 1.624716226636624924e+03 1.643647807171139675e+03 1.661727679126404837e+03 1.679112834711281266e+03 1.695921974065190625e+03 1.712244942574799552e+03 1.728149578697891002e+03 1.743686791524383352e+03 1.758894380349146331e+03 1.773799934095784920e+03 1.788423044216592643e+03 1.802776998878976883e+03 1.816870082407041082e+03 1.830706573370546948e+03 1.844287512597165460e+03 1.857611295942449942e+03 1.870674134183116166e+03 1.883470412808786932e+03 1.895992977039966263e+03 1.908233361582988664e+03 1.920181980077446042e+03 1.931828285626066190e+03 1.943160911015233751e+03 1.954167795076382845e+03 1.964836299977012004e+03 1.975153322961147296e+03 1.985105405096111554e+03 1.994678838852272520e+03 2.003859775782962060e+03 2.012634335130656382e+03 2.020988713819690247e+03 2.028909297971155411e+03 2.036382775767097655e+03 2.043396251182483411e+03 2.049937357787051042e+03 2.055994371495607083e+03 2.061556320822224734e+03 2.066613092884776961e+03 2.071155533129355263e+03 2.075175536520043352e+03 2.078666127789714665e+03 2.081621528292186667e+03 2.084037207052338090e+03 2.085909913791072995e+03 2.087237692012457956e+03 2.088019870680265740e+03 2.088257033571784632e+03 2.087950966062209773e+03 2.087104579839618509e+03 2.085721816848998969e+03 2.083807534579478670e+03 2.081367375604068911e+03 2.078407625017019200e+03 2.074935060052052904e+03 2.070956796670160202e+03 2.066480138247764444e+03 2.061512431651221959e+03 2.056060935935843645e+03 2.050132708650074164e+03 2.043734514260800779e+03 2.036872758556147119e+03 2.029553452048800864e+03 2.021782204425500368e+03 2.013564251002984292e+03 2.004904510999097283e+03 1.995807676254556327e+03 1.986278327892120160e+03 1.976321077320516679e+03 1.965940727022586543e+03 1.955142445747842658e+03 1.943931952089803190e+03 1.932315699991106385e+03 1.920301059499062831e+03 1.907896486096463605e+03 1.895111672153731206e+03 1.881957674476882858e+03 1.868447012541511867e+03 1.854593732779804895e+03 1.840413435193807572e+03 1.825923259568441836e+03 1.811141829614513881e+03 1.796089154446914108e+03 1.780786487858776127e+03 1.765256146852695792e+03 1.749521291802020187e+03 1.733605671408413400e+03 1.717533336269038045e+03 1.701328325342593416e+03 1.685014329883736082e+03 1.668614339474252347e+03 1.652150274586021624e+03 1.635642609624666420e+03 1.619109989566168224e+03 1.602568842026662878e+03 1.586032984771347856e+03 1.569513226083122390e+03 1.553016951797618276e+03 1.536547687770547782e+03 1.520104619532057541e+03 1.503682041232449137e+03 1.487268693089211183e+03 1.470846930575069791e+03 1.454391652736781452e+03 1.437868914334661440e+03 1.421234200318061085e+03 1.404430588779846403e+03 1.387387908146123209e+03 1.370026965004329213e+03 1.352283157645716074e+03 1.334201074561254245e+03 1.316297335458120870e+03 1.301000000000000000e+03
1.438000000000000000e+03 1.470619164624366704e+03 1.499792932107806564e+03 1.526304911519892585e+03 1.550680572660865437e+03 1.573319667788587140e+03 1.594539339836191857e+03 1.614593882246168505e+03 1.633687147849560006e+03 1.651981899408990557e+03 1.669607404385978498e+03 1.686665737346589140e+03 1.703237006815906170e+03 1.719383653715238779e+03 1.735153949898412293e+03 1.750584817500428471e+03 1.765704081243158043e+03 1.780532254671954661e+03 1.795083948509013680e+03 1.809368976247488490e+03 1.823393219757748511e+03 1.837159306574943457e+03 1.850667140891684539e+03 1.863914322090270161e+03 1.876896477805862787e+03 1.889607532860295350e+03 1.902039930781839757e+03 1.914184820874446359e+03 1.926032220782159357e+03 1.937571162089927839e+03 1.948789824606375760e+03 1.959675663496688230e+03 1.970215532295469984e+03 1.980395803960665262e+03 1.990202491468900462e+03 1.999621368946074199e+03 2.008638093927927912e+03 2.017238331014443702e+03 2.025407876887664997e+03 2.033132786381320784e+03 2.040399499007051872e+03 2.047194965048825452e+03 2.053506770034659439e+03 2.059323256090460745e+03 2.064633638387836982e+03 2.069428114633796667e+03 2.073697965335695244e+03 2.077435642430851203e+03 2.080634843817138972e+03 2.083290571375947366e+03 2.085399170254922865e+03 2.086958347481786404e+03 2.087967168412216779e+03 2.088426030066669227e+03 2.088336611068112234e+03 2.087701798632494501e+03 2.086525593857959393e+03 2.084812997373604048e+03 2.082569878207139936e+03 2.079802829474606369e+03 2.076519015146521269e+03 2.072726012668143085e+03 2.068431656576153728e+03 2.063643888435513873e+03 2.058370618401695538e+03 2.052619603486888536e+03 2.046398347175359504e+03 2.039714024403599069e+03 2.032573435114982885e+03 2.024982988644453371e+03 2.016948720121072938e+03 2.008476338935738340e+03 1.999571308151675566e+03 1.990238952582068578e+03 1.980484592167159917e+03 1.970313696294708052e+03 1.959732053860625456e+03 1.948745953192769321e+03 1.937362365484572592e+03 1.925589125122651467e+03 1.913435100251008407e+03 1.900910347092472193e+03 1.888026241935484677e+03 1.874795585273430333e+03 1.861232673329747286e+03 1.847353333084953420e+03 1.833174917907271265e+03 1.818716261940051027e+03 1.803997592478859133e+03 1.789040400641396445e+03 1.773867271658157051e+03 1.758501677056778362e+03 1.742967731846682682e+03 1.727289920503108078e+03 1.711492796072353258e+03 1.695600657043212777e+03 1.679637206719010237e+03 1.663625199636289381e+03 1.647586079048133115e+03 1.631539608529792986e+03 1.615503499229922909e+03 1.599493031961719680e+03 1.583520669860813086e+03 1.567595652194852391e+03 1.551723552260071301e+03 1.535905770852927617e+03 1.520138919577097568e+03 1.504414022219622439e+03 1.488715423075956778e+03 1.473019231735863741e+03 1.457291044621066703e+03 1.441482548967590446e+03 1.425526402746553686e+03 1.409328388872152345e+03 1.392754796616555723e+03 1.375609005238185091e+03 1.357572983803117495e+03 1.338000138685108141e+03 1.315000000000000000e+03
1.445000000000000000e+03 1.470445291291137892e+03 1.495538745682000354e+03 1.519701551373328812e+03 1.542735977562118478e+03 1.564635706390380165e+03 1.585482367179606626e+03 1.605389961779268106e+03 1.624476636616573842e+03 1.642851584954190457e+03 1.660609979728713597e+03 1.677831956253010958e+03 1.694583483311882446e+03 1.710917986281770482e+03 1.726878149139933612e+03 1.742497625134705004e+03 1.757802545008385096e+03 1.772812792546011678e+03 1.787543056121238351e+03 1.802003681656577101e+03 1.816201357763282431e+03 1.830139663555286006e+03 1.843819506810703388e+03 1.857239476383749889e+03 1.870396128858723387e+03 1.883284225773314347e+03 1.895896934485820566e+03 1.908226002970248146e+03 1.920261916487582539e+03 1.931994042166235431e+03 1.943410765983176134e+03 1.954499625418644655e+03 1.965247440110101479e+03 1.975640442105134071e+03 1.985664406760917927e+03 1.995304784915536402e+03 2.004546836624484285e+03 2.013375766479694448e+03 2.021776860280366691e+03 2.029735622583375061e+03 2.037237914412123700e+03 2.044270090139863214e+03 2.050819132287386310e+03 2.056872782693097633e+03 2.062419668238783743e+03 2.067449419064478661e+03 2.071952777000813512e+03 2.075921691808448031e+03 2.079349402761933561e+03 2.082230503167341794e+03 2.084560985572587015e+03 2.086338265724210942e+03 2.087561183745311610e+03 2.088229981549894092e+03 2.088346256155138690e+03 2.087912889283783898e+03 2.086933954436591193e+03 2.085414603426974281e+03 2.083360935170267112e+03 2.080779850270831957e+03 2.077678895613655186e+03 2.074066103707968978e+03 2.069949831917506344e+03 2.065338606920222446e+03 2.060240979751800296e+03 2.054665396592785783e+03 2.048620090058624555e+03 2.042112995154336659e+03 2.035151693279335632e+03 2.027743386739404286e+03 2.019894905175777694e+03 2.011612744194753077e+03 2.002903135318384102e+03 1.993772145222378413e+03 1.984225801126060105e+03 1.974270238193597834e+03 1.963911863934086796e+03 1.953157533883187398e+03 1.942014732336554744e+03 1.930491751602855402e+03 1.918597863160844554e+03 1.906343474241069998e+03 1.893740263700107789e+03 1.880801291597801992e+03 1.867541077602862515e+03 1.853975644210774590e+03 1.840122521727433650e+03 1.826000713016522241e+03 1.811630617091368777e+03 1.797033911715715249e+03 1.782233396226471996e+03 1.767252796770817895e+03 1.752116537027753566e+03 1.736849478229920351e+03 1.721476632885185154e+03 1.706022856987406158e+03 1.690512525664425311e+03 1.674969197089146974e+03 1.659415269005088703e+03 1.643871631282243925e+03 1.628357316352113230e+03 1.612889146902346738e+03 1.597481376410842813e+03 1.582145312276847562e+03 1.566888902352963441e+03 1.551716251797564837e+03 1.536627015396230718e+03 1.521615575887616615e+03 1.506669862794597520e+03 1.491769573232533730e+03 1.476883395965387990e+03 1.461964549201125919e+03 1.446943375953919713e+03 1.431714538252905186e+03 1.416113572189494334e+03 1.399870721940947533e+03 1.382512903060339795e+03 1.363146058287333744e+03 1.340000000000000000e+03
1.451000000000000000e+03 1.470619412660478019e+03 1.492207561589675606e+03 1.514215191972958110e+03 1.535911065843471533e+03 1.556986274332155972e+03 1.577342505965132204e+03 1.596981679519903992e+03 1.615949294134363754e+03 1.634305982185719586e+03 1.652113761107138316e+03 1.669429858942524788e+03 1.686304367976404592e+03 1.702779768339864859e+03 1.718891307011575918e+03 1.734667714682761471e+03 1.750132004200394476e+03 1.765302230976431929e+03 1.780192166505813248e+03 1.794811871946786141e+03 1.809168176004802717e+03 1.823265068876641180e+03 1.837104026442649229e+03 1.850684278763589418e+03 1.864003035602071577e+03 1.877055679874730004e+03 1.889835938034881792e+03 1.902336034583200444e+03 1.914546836299257848e+03 1.926457990415390668e+03 1.938058059819802565e+03 1.949334657463520443e+03 1.960274581430768649e+03 1.970863951584043662e+03 1.981088348280601622e+03 1.990932953342945893e+03 2.000382693220484725e+03 2.009422384074268393e+03 2.018036878327487557e+03 2.026211212032682624e+03 2.033930752200196594e+03 2.041181343005844155e+03 2.047949449550398867e+03 2.054222297586968580e+03 2.059988007377771282e+03 2.065235719606733710e+03 2.069955711078940112e+03 2.074139497803604627e+03 2.077779923004620741e+03 2.080871227649952743e+03 2.083409101252244909e+03 2.085390710976521859e+03 2.086814707498610460e+03 2.087681206584667507e+03 2.087991745995065685e+03 2.087749218035079139e+03 2.086957778853888613e+03 2.085622736400855956e+03 2.083750419748477725e+03 2.081348033247604235e+03 2.078423499655109481e+03 2.074985296931859011e+03 2.071042293818076359e+03 2.066603589528228440e+03 2.061678362949600796e+03 2.056275736567355125e+03 2.050404659972489753e+03 2.044073817245433929e+03 2.037291561763623122e+03 2.030065881081327007e+03 2.022404393506347333e+03 2.014314376889039295e+03 2.005802828986435543e+03 1.996876557612287797e+03 1.987542297676995759e+03 1.977806851202190501e+03 1.967677245502084816e+03 1.957160903991111354e+03 1.946265823531660772e+03 1.935000751895981011e+03 1.923375358793173746e+03 1.911400394007847808e+03 1.899087826504979375e+03 1.886450958861704294e+03 1.873504512069936027e+03 1.860264676586856240e+03 1.846749126461967990e+03 1.832976994405089272e+03 1.818968806743230743e+03 1.804746378309521788e+03 1.790332668378754079e+03 1.775751599778125865e+03 1.761027844226796560e+03 1.746186577764374533e+03 1.731253210787760054e+03 1.716253097697999692e+03 1.701211231429301279e+03 1.686151928145503689e+03 1.671098507079128012e+03 1.656072969753098278e+03 1.641095681504131562e+03 1.626185056060443003e+03 1.611357240495007318e+03 1.596625792496674876e+03 1.582001333458505542e+03 1.567491147532897230e+03 1.553098675461628318e+03 1.538822817385437702e+03 1.524656901713211255e+03 1.510587080636544442e+03 1.496589745118477595e+03 1.482627250549405744e+03 1.468640683152140809e+03 1.454537328141701437e+03 1.440168475342938564e+03 1.425289647617033097e+03 1.409490757989476151e+03 1.392085872718722158e+03 1.372000000000000000e+03
1.452000000000000000e+03 1.468823265171827643e+03 1.488453855825220217e+03 1.509036086972895191e+03 1.529700913835341453e+03 1.550048569068727829e+03 1.569911153581085728e+03 1.589235121874888137e+03 1.608021723184522898e+03 1.626296708177416349e+03 1.644095025226009284e+03 1.661453235648004238e+03 1.678405909974585029e+03 1.694984069369561894e+03 1.711214662515101509e+03 1.727120548785834444e+03 1.742720710656257324e+03 1.758030552092185644e+03 1.773062211316918365e+03 1.787824854808411146e+03 1.802324939878437135e+03 1.816566443822377096e+03 1.830551062818294440e+03 1.844278385934622520e+03 1.857746050146816287e+03 1.870949881944250365e+03 1.883884030377180352e+03 1.896541095507312320e+03 1.908912255331066717e+03 1.920987393422265995e+03 1.932755228830389569e+03 1.944203449185876252e+03 1.955318847502865992e+03 1.966087462819464690e+03 1.976494724556654546e+03 1.986525600286597637e+03 1.996164746455410750e+03 2.005396661481875981e+03 2.014205840532122693e+03 2.022576931135560017e+03 2.030494888649059703e+03 2.037945130390489794e+03 2.044913687051222496e+03 2.051387349768245713e+03 2.057353811003376904e+03 2.062801797157336750e+03 2.067721190660508910e+03 2.072103139151617142e+03 2.075940149301367910e+03 2.079226162878950163e+03 2.081956612810061415e+03 2.084128457245104073e+03 2.085740190048525164e+03 2.086791826630717878e+03 2.087284864661047777e+03 2.087222219905742350e+03 2.086608138202477676e+03 2.085448085384042770e+03 2.083748617761999412e+03 2.081517236541164493e+03 2.078762230220054789e+03 2.075492509605840041e+03 2.071717440503084617e+03 2.067446679397149637e+03 2.062690017525982967e+03 2.057457238606398278e+03 2.051757995150017450e+03 2.045601707775832210e+03 2.038997491216016670e+03 2.031954109842474963e+03 2.024479964544454560e+03 2.016583111699039364e+03 2.008271313837500202e+03 1.999552120464815744e+03 1.990432976381132903e+03 1.980921353825118103e+03 1.971024903849219299e+03 1.960751621580107667e+03 1.950110019441815211e+03 1.939109302044715378e+03 1.927759536282766703e+03 1.916071810238051285e+03 1.904058374761106734e+03 1.891732762065355473e+03 1.879109876324659808e+03 1.866206052069269390e+03 1.853039077107177263e+03 1.839628177721994234e+03 1.825993964980001010e+03 1.812158342082849913e+03 1.798144373794253625e+03 1.783976120016537379e+03 1.769678436566428445e+03 1.755276747071790851e+03 1.740796790657230531e+03 1.726264350682451322e+03 1.711704970216873562e+03 1.697143660144976820e+03 1.682604605753264877e+03 1.668110877280892510e+03 1.653684149107763005e+03 1.639344430819654463e+03 1.625109811022724898e+03 1.610996210974677979e+03 1.597017139025881988e+03 1.583183427149804857e+03 1.569502915217592545e+03 1.555980023354595687e+03 1.542615111369117130e+03 1.529403456195467697e+03 1.516333565615749194e+03 1.503384359647713836e+03 1.490520443937039545e+03 1.477684212166392626e+03 1.464782812017947435e+03 1.451667256449636398e+03 1.438101091080288370e+03 1.423720137917519423e+03 1.408000000000000000e+03
1.446000000000000000e+03 1.464220239794640293e+03 1.483749417995308704e+03 1.503775777913880347e+03 1.523809831890363057e+03 1.543598352958355008e+03 1.563021344299915881e+03 1.582029313568184534e+03 1.600609493858879432e+03 1.618767979681106681e+03 1.636520138648094871e+03 1.653885355593072063e+03 1.670884109433530284e+03 1.687536344904125372e+03 1.703860579930660151e+03 1.719873436052689158e+03 1.735589412222076589e+03 1.751020797085232289e+03 1.766177658392594367e+03 1.781067874106999170e+03 1.795697185388728712e+03 1.810069261009873344e+03 1.824185768289720727e+03 1.838046448796773575e+03 1.851649198733160119e+03 1.864990154674763971e+03 1.878063785552501486e+03 1.890862991664687343e+03 1.903379211261571072e+03 1.915602534939419684e+03 1.927521827783582694e+03 1.939124858941895582e+03 1.950398438106903768e+03 1.961328558239568792e+03 1.971900543771120283e+03 1.982099203460200215e+03 1.991908987043145316e+03 2.001314144779071512e+03 2.010298888942730628e+03 2.018847556244420275e+03 2.026944770049392446e+03 2.034575601126461379e+03 2.041725725479770972e+03 2.048381577617434687e+03 2.054530497399644446e+03 2.060160868404578650e+03 2.065262245573566361e+03 2.069825469769371921e+03 2.073842766824477621e+03 2.077307828689334201e+03 2.080215874429079122e+03 2.082563689071797853e+03 2.084349638686015169e+03 2.085573660556989125e+03 2.086237227930335393e+03 2.086343289480289968e+03 2.085896184414608797e+03 2.084901534919445567e+03 2.083366118442037987e+03 2.081297723070692882e+03 2.078704989963947810e+03 2.075597247368566514e+03 2.071984341217309520e+03 2.067876467585067530e+03 2.063284012385541246e+03 2.058217403597309385e+03 2.052686981013574496e+03 2.046702888018749491e+03 2.040274989220774842e+03 2.033412816932492433e+03 2.026125548527711317e+03 2.018422015633201909e+03 2.010310744996610083e+03 2.001800029734865802e+03 1.992898028561565752e+03 1.983612889557443395e+03 1.973952894124843397e+03 1.963926615989924812e+03 1.953543089513888162e+03 1.942811981168400962e+03 1.931743757834283088e+03 1.920349845601695279e+03 1.908642772981735334e+03 1.896636292872700324e+03 1.884345478241605633e+03 1.871786787259060702e+03 1.858978094534814318e+03 1.845938686110484696e+03 1.832689216941580980e+03 1.819251630709180745e+03 1.805649042909702985e+03 1.791905589248735623e+03 1.778046242384496054e+03 1.764096601004856211e+03 1.750082656059469855e+03 1.736030539689704256e+03 1.721966262990739779e+03 1.707915449190169511e+03 1.693903069121038243e+03 1.679953185982330979e+03 1.666088716278308766e+03 1.652331213442789249e+03 1.638700679868518591e+03 1.625215411675773566e+03 1.611891878235757076e+03 1.598744634673583732e+03 1.585786259467411128e+03 1.573027299585895207e+03 1.560476190724501066e+03 1.548139098546961350e+03 1.536019598829012921e+03 1.524118088275082755e+03 1.512430824915712947e+03 1.500948626309529800e+03 1.489655709293534755e+03 1.478530267729767957e+03 1.467550123647453120e+03 1.456705760229009684e+03 1.446000000000000000e+03
1.438000000000000000e+03 1.458310361109684436e+03 1.478551971773869809e+03 1.498514038601866105e+03 1.518172630689866082e+03 1.537524072058762158e+03 1.556558959811109162e+03 1.575265583497528041e+03 1.593634956227413113e+03 1.611663018722891366e+03 1.629350710160760173e+03 1.646703042164104318e+03 1.663727896292190508e+03 1.680434888194638006e+03 1.696834421548443743e+03 1.712936949334837209e+03 1.728752418137973791e+03 1.744289860001198349e+03 1.759557098174180965e+03 1.774560539199952245e+03 1.789305030436447851e+03 1.803793767848345851e+03 1.818028243371405551e+03 1.832008224408643173e+03 1.845731760277516514e+03 1.859195211924632531e+03 1.872393302169107528e+03 1.885319184299002245e+03 1.897964527159724639e+03 1.910319615037460380e+03 1.922373460724489632e+03 1.934113930203423934e+03 1.945527877432165951e+03 1.956601287764500285e+03 1.967319428605466783e+03 1.977667005971213257e+03 1.987628325690193606e+03 1.997187458034495876e+03 2.006328404595052916e+03 2.015035266202727144e+03 2.023292410642696041e+03 2.031084638810604247e+03 2.038397347819332253e+03 2.045216689393879051e+03 2.051529721702647748e+03 2.057324552584220328e+03 2.062590471960257673e+03 2.067318071099573444e+03 2.071499346337557654e+03 2.075127784878880448e+03 2.078198430436156741e+03 2.080707926694436082e+03 2.082654536946257394e+03 2.084038138713096032e+03 2.084860192747462861e+03 2.085123686479860226e+03 2.084833052713687721e+03 2.083994065150926417e+03 2.082613713119562362e+03 2.080700058635035475e+03 2.078262079626530976e+03 2.075309503759579457e+03 2.071852637756976037e+03 2.067902197433064430e+03 2.063469143790428461e+03 2.058564530469264355e+03 2.053199367582387822e+03 2.047384506516136298e+03 2.041130549641276730e+03 2.034447788078482063e+03 2.027346169727831693e+03 2.019835298734941716e+03 2.011924466466528429e+03 2.003622712947154923e+03 1.994938916609476792e+03 1.985881909174682278e+03 1.976460611547468716e+03 1.966684185816179706e+03 1.956562197823081533e+03 1.946104784334856731e+03 1.935322818614202561e+03 1.924228068176706529e+03 1.912833338711721581e+03 1.901152598542638998e+03 1.889201078584685774e+03 1.876995343504958328e+03 1.864553330672923266e+03 1.851894354479773483e+03 1.839039074669723050e+03 1.826009428433218091e+03 1.812828527130049679e+03 1.799520519611096915e+03 1.786110425166498317e+03 1.772623940126163006e+03 1.759087223062574139e+03 1.745526664389630469e+03 1.731968646916767284e+03 1.718439304615623314e+03 1.704964287508498728e+03 1.691568541227949936e+03 1.678276110475530231e+03 1.665109976397765877e+03 1.652091938904281051e+03 1.639242556332489130e+03 1.626581156855371319e+03 1.614125939023326282e+03 1.601894183505528417e+03 1.589902605724106706e+03 1.578167892242942344e+03 1.566707488114258467e+03 1.555540750827351076e+03 1.544690689766535797e+03 1.534186742512552883e+03 1.524069581273308359e+03 1.514400225283046439e+03 1.505278744148335363e+03 1.496884578150287098e+03 1.489563590421599883e+03 1.484000000000000000e+03
1.429000000000000000e+03 1.452472603748526581e+03 1.473640806001123110e+03 1.493565862151632700e+03 1.512855988860422713e+03 1.531783015204657659e+03 1.550444671261022904e+03 1.568861939897764159e+03 1.587027335552393424e+03 1.604926482128111275e+03 1.622546707131139101e+03 1.639879726578466943e+03 1.656921822159324165e+03 1.673673077629372983e+03 1.690136365287390845e+03 1.706316366401070809e+03 1.722218725721162173e+03 1.737849360928626538e+03 1.753213916547075769e+03 1.768317341955628081e+03 1.783163572275424485e+03 1.797755293405807606e+03 1.812093775843994763e+03 1.826178765102186162e+03 1.840008419183310707e+03 1.853579285634657253e+03 1.866886312232123373e+03 1.879922886460055452e+03 1.892680899747919057e+03 1.905150832997486759e+03 1.917321860356601064e+03 1.929181968522943635e+03 1.940718089131381475e+03 1.951916242014495538e+03 1.962761687338989532e+03 1.973239084813105819e+03 1.983332658327962918e+03 1.993026364531613581e+03 2.002304063930180746e+03 2.011149693158487707e+03 2.019547437058617788e+03 2.027481899148441244e+03 2.034938268957624587e+03 2.041902484565274108e+03 2.048361388505187733e+03 2.054302875029662573e+03 2.059716026561799026e+03 2.064591237041597196e+03 2.068920319805093186e+03 2.072696597648870011e+03 2.075914972841615054e+03 2.078571975062430283e+03 2.080665785578821669e+03 2.082196236425422285e+03 2.083164783900184375e+03 2.083574456343514157e+03 2.083429776886454420e+03 2.082736662619740855e+03 2.081502302414925907e+03 2.079735016387509404e+03 2.077444100694659937e+03 2.074639661971803434e+03 2.071332446200859067e+03 2.067533667140217858e+03 2.063254839610623094e+03 2.058507622906886354e+03 2.053303679385989199e+03 2.047654552869163354e+03 2.041571570899327071e+03 2.035065774134272488e+03 2.028147875256433053e+03 2.020828248774282201e+03 2.013116952015940569e+03 2.005023776513028224e+03 1.996558327884407163e+03 1.987730131296892523e+03 1.978548758642808025e+03 1.969023972767967052e+03 1.959165883438389073e+03 1.948985109273420903e+03 1.938492939612970758e+03 1.927701490235516758e+03 1.916623847001587137e+03 1.905274191857049573e+03 1.893667906177213808e+03 1.881821647145873385e+03 1.869753393717520339e+03 1.857482459677199131e+03 1.845029472360183263e+03 1.832416316691898373e+03 1.819666045327861184e+03 1.806802756787468297e+03 1.793851444562513734e+03 1.780837821226021788e+03 1.767788122562003082e+03 1.754728897684968615e+03 1.741686792035146482e+03 1.728688331053723914e+03 1.715759713316949956e+03 1.702926623025059598e+03 1.690214073134266528e+03 1.677646292289463190e+03 1.665246671370830427e+03 1.653037789386636632e+03 1.641041544373223132e+03 1.629279424082085143e+03 1.617772965435689002e+03 1.606544474095112946e+03 1.595618111088079786e+03 1.585021510875403465e+03 1.574788189423072026e+03 1.564961159175643388e+03 1.555598445202783068e+03 1.546781720319464512e+03 1.538630400599893164e+03 1.531326442990231499e+03 1.525164213864873318e+03 1.520673404857299374e+03 1.519000000000000000e+03
1.423000000000000000e+03 1.448943548132565866e+03 1.469981375458691900e+03 1.489265466528112938e+03 1.507919511600422084e+03 1.526328522558239911e+03 1.544599963409298425e+03 1.562739168701632479e+03 1.580718496619600273e+03 1.598504563262473312e+03 1.616068286111051748e+03 1.633387779813666384e+03 1.650448348306537355e+03 1.667241405586604969e+03 1.683763114441160042e+03 1.700013069900001483e+03 1.715993147403225976e+03 1.731706544679072067e+03 1.747157008473408951e+03 1.762348223753823731e+03 1.777283340331505087e+03 1.791964613643450548e+03 1.806393139749288366e+03 1.820568668087825699e+03 1.834489478662375177e+03 1.848152312909619923e+03 1.861552349554083321e+03 1.874683218329649662e+03 1.887537045653072482e+03 1.900104527252171238e+03 1.912375023461348974e+03 1.924336673461169767e+03 1.935976525202607263e+03 1.947280678151002576e+03 1.958234436327805497e+03 1.968822469427888791e+03 1.979028980047518644e+03 1.988837875269306096e+03 1.998232941010100376e+03 2.007198017640584567e+03 2.015717175428101200e+03 2.023774888337366065e+03 2.031356204651943244e+03 2.038446912762075272e+03 2.045033700315743090e+03 2.051104304767593931e+03 2.056647653205554889e+03 2.061653989209998144e+03 2.066114984427858872e+03 2.070023832545136429e+03 2.073375323433657286e+03 2.076165895445244132e+03 2.078393664136145162e+03 2.080058426127779967e+03 2.081161637340618654e+03 2.081706365463226575e+03 2.081697217218527840e+03 2.081140241738523855e+03 2.080042812126929675e+03 2.078413488042988320e+03 2.076261862844291500e+03 2.073598399447298107e+03 2.070434259569056849e+03 2.066781131374181314e+03 2.062651060744497954e+03 2.058056291399091606e+03 2.053009118911497353e+03 2.047521763298715086e+03 2.041606264302213049e+03 2.035274402761080410e+03 2.028537650616410247e+03 2.021407151114780390e+03 2.013893729733439159e+03 2.006007935269990412e+03 1.997760109466385074e+03 1.989160482511970258e+03 1.980219290832591014e+03 1.970946912757917062e+03 1.961354016997925783e+03 1.951451718376126109e+03 1.941251734978766308e+03 1.930766540795370020e+03 1.920009508048063708e+03 1.908995033729236184e+03 1.897738645376071190e+03 1.886257081787276547e+03 1.874568345207877201e+03 1.862691722444746119e+03 1.850647773399233074e+03 1.838458286584205325e+03 1.826146202302948041e+03 1.813735505281923452e+03 1.801251089648727429e+03 1.788718600218295933e+03 1.776164255091497580e+03 1.763614655590178245e+03 1.751096590577170446e+03 1.738636843286753447e+03 1.726262009999420570e+03 1.713998341358489597e+03 1.701871619035890490e+03 1.689907083103251352e+03 1.678129429303086908e+03 1.666562901141474867e+03 1.655231510424019234e+03 1.644159433224684562e+03 1.633371648947149424e+03 1.622894922167682353e+03 1.612759276430103455e+03 1.603000184764495543e+03 1.593661814278187649e+03 1.584801820672475742e+03 1.576498383777348863e+03 1.568860326381981395e+03 1.562040946767011519e+03 1.556254536602028111e+03 1.551787815642326223e+03 1.548973700864436069e+03 1.548000000000000000e+03
1.431000000000000000e+03 1.450325086322140578e+03 1.468085411800283964e+03 1.485609670567246440e+03 1.503247383854054760e+03 1.521035578381167397e+03 1.538915982763121974e+03 1.556809063791980407e+03 1.574639706175468064e+03 1.592345374897394777e+03 1.609877565490501183e+03 1.627200668177118814e+03 1.644289944942603142e+03 1.661129348415637196e+03 1.677709489707082184e+03 1.694025868949640881e+03 1.710077392439033019e+03 1.725865160196012084e+03 1.741391492189618475e+03 1.756659157828720708e+03 1.771670775210386182e+03 1.786428350701818999e+03 1.800932934062071581e+03 1.815184368690199335e+03 1.829181120392156799e+03 1.842920171204535336e+03 1.856396967332867462e+03 1.869605412240879105e+03 1.882537897465782407e+03 1.895185364931246113e+03 1.907537395469583998e+03 1.919582319017439886e+03 1.931307342567605929e+03 1.942698692480825457e+03 1.953741768209182055e+03 1.964421304869766118e+03 1.974721542438363940e+03 1.984626399607195935e+03 1.994119650564808126e+03 2.003185103106227871e+03 2.011806776565162863e+03 2.019969078078140456e+03 2.027656975647864328e+03 2.034856166379119941e+03 2.041553238129069541e+03 2.047735822662559713e+03 2.053392738252888194e+03 2.058514119541894615e+03 2.063091532393041234e+03 2.067118071458839040e+03 2.070588438258155293e+03 2.073498997733925535e+03 2.075847811546296725e+03 2.077634646752702338e+03 2.078860959030101640e+03 2.079529850194179289e+03 2.079646000447274673e+03 2.079215576517120098e+03 2.078246117603021958e+03 2.076746401792616780e+03 2.074726296316544904e+03 2.072196595636374695e+03 2.069168851880568582e+03 2.065655202525694676e+03 2.061668200442009038e+03 2.057220651467098378e+03 2.052325464529068086e+03 2.046995519010588396e+03 2.041243553533973454e+03 2.035082079670722806e+03 2.028523323259272956e+03 2.021579195081477565e+03 2.014261291636144506e+03 2.006580925695087217e+03 1.998549185273923740e+03 1.990177018636785306e+03 1.981475342020088647e+03 1.972455165941298674e+03 1.963127735285015660e+03 1.953504677855777345e+03 1.943598155772596328e+03 1.933421013965012435e+03 1.922986920117163891e+03 1.912310490690334518e+03 1.901407398124005795e+03 1.890294454952843807e+03 1.878989671359580598e+03 1.867512283585159821e+03 1.855882751609517982e+03 1.844122725570409330e+03 1.832254981476662806e+03 1.820303327872375348e+03 1.808292486201397423e+03 1.796247948695984633e+03 1.784195818668789798e+03 1.772162639135755171e+03 1.760175216769047211e+03 1.748260449328472077e+03 1.736445166035636703e+03 1.724755991976321184e+03 1.713219249756647514e+03 1.701860914624869565e+03 1.690706643606178659e+03 1.679781905660029224e+03 1.669112249663804505e+03 1.658723762025398401e+03 1.648643788826636410e+03 1.638902033022314527e+03 1.629532191928890825e+03 1.620574383172258194e+03 1.612078729295139965e+03 1.604110639118814561e+03 1.596758517860416987e+03 1.590144735870639579e+03 1.584440222323350099e+03 1.579880467049488288e+03 1.576771098201034420e+03 1.575439908687436855e+03 1.576000000000000000e+03
1.445000000000000000e+03 1.453276478789643306e+03 1.466435684717194817e+03 1.481855628532826813e+03 1.498444955724371994e+03 1.515675472398511829e+03 1.533249083044011059e+03 1.550975639138149063e+03 1.568724305206955933e+03 1.586401843708870956e+03 1.603941346797383176e+03 1.621295371277049526e+03 1.638431174105255195e+03 1.655327125300011630e+03 1.671969894806188449e+03 1.688352210312728630e+03 1.704471063894551662e+03 1.720326281439797867e+03 1.735919388077593567e+03 1.751252715515789987e+03 1.766328706968552751e+03 1.781149383422232177e+03 1.795715941756204757e+03 1.810028460864963790e+03 1.824085696534284125e+03 1.837884949529583992e+03 1.851421994290953990e+03 1.864691057931174555e+03 1.877684841027952643e+03 1.890394573103328185e+03 1.902810096788373812e+03 1.914919975557672842e+03 1.926711620645204221e+03 1.938171433363822416e+03 1.949284959572731623e+03 1.960037053487462572e+03 1.970412048412302966e+03 1.980393932297048423e+03 1.989966526276321702e+03 1.999113664537376508e+03 2.007819373979410329e+03 2.016068052174683999e+03 2.023844642123816811e+03 2.031134802223497900e+03 2.037925069747899215e+03 2.044203016002754111e+03 2.049957391163848570e+03 2.055178256682003848e+03 2.059857103047465898e+03 2.063986950679717211e+03 2.067562431763414679e+03 2.070579851002468786e+03 2.073037223522128443e+03 2.074934288516893957e+03 2.076272497716990074e+03 2.077054978317840323e+03 2.077286470668754191e+03 2.076973241726006563e+03 2.076122976014024971e+03 2.074744646575091338e+03 2.072848369089571861e+03 2.070445242981684714e+03 2.067547183858077915e+03 2.064166752029385862e+03 2.060316982114458369e+03 2.056011218805389944e+03 2.051262963768287136e+03 2.046085738367296926e+03 2.040492966433221454e+03 2.034497880666726815e+03 2.028113455490670958e+03 2.021352368274191122e+03 2.014226989875852041e+03 2.006749404431366656e+03 1.998931457282317069e+03 1.990784828945591016e+03 1.982321132097355076e+03 1.973552027725790595e+03 1.964489355924559504e+03 1.955145276279494738e+03 1.945532412462986485e+03 1.935663995505472030e+03 1.925554000265268769e+03 1.915217269863278716e+03 1.904669623277415440e+03 1.893927941886547387e+03 1.883010231493712354e+03 1.871935657218241204e+03 1.860724549598812246e+03 1.849398381266567867e+03 1.837979714602627382e+03 1.826492121864213459e+03 1.814960080329697121e+03 1.803408846063972078e+03 1.791864310940067298e+03 1.780352848581978378e+03 1.768901155945356550e+03 1.757536098377946701e+03 1.746284567283336401e+03 1.735173361078496328e+03 1.724229102184297517e+03 1.713478205617719595e+03 1.702946918821374766e+03 1.692661458372007473e+03 1.682648278241255866e+03 1.672934518032633605e+03 1.663548700742065648e+03 1.654521782261304907e+03 1.645888705659094285e+03 1.637690692693709025e+03 1.629978629746643946e+03 1.622818102519079957e+03 1.616296948479490538e+03 1.610536705962536644e+03 1.605710181848719913e+03 1.602068764994057346e+03 1.599985268677131899e+03 1.600019539996088042e+03 1.603000000000000000e+03
1.447000000000000000e+03 1.451350114476046429e+03 1.462535144292697623e+03 1.476947045663343715e+03 1.493021034902897782e+03 1.509996721411893077e+03 1.527458285146883100e+03 1.545153528963967346e+03 1.562917528479797056e+03 1.580637511162247392e+03 1.598234913922347914e+03 1.615655093080629968e+03 1.632860743813868567e+03 1.649827313641950241e+03 1.666539615024649038e+03 1.682989236709800934e+03 1.699172530297169487e+03 1.715089032768904190e+03 1.730740229556025270e+03 1.746128588107478663e+03 1.761256808385508521e+03 1.776127248384838822e+03 1.790741491549880720e+03 1.805100029761458472e+03 1.819202040885230417e+03 1.833045244040109992e+03 1.846625818994047677e+03 1.859938378617706348e+03 1.872975985283206455e+03 1.885730203618006726e+03 1.898191183221750407e+03 1.910347765912451905e+03 1.922187612853166911e+03 1.933697347568206396e+03 1.944862711420389587e+03 1.955668728606404102e+03 1.966099878144994818e+03 1.976140270684651341e+03 1.985773828242113268e+03 1.994984465197348982e+03 2.003756269012547818e+03 2.012073679212368006e+03 2.019921663164266192e+03 2.027285887139403258e+03 2.034152881029192258e+03 2.040510194956778378e+03 2.046346545876697292e+03 2.051651952121787872e+03 2.056417853757072407e+03 2.060637216557766806e+03 2.064304617462633360e+03 2.067416309480378914e+03 2.069970264256628525e+03 2.071966190846951577e+03 2.073405529685736383e+03 2.074291421282651299e+03 2.074628649802793916e+03 2.074423562372040578e+03 2.073683965669146346e+03 2.072419002090701724e+03 2.070639008471712259e+03 2.068355360980378009e+03 2.065580310348885178e+03 2.062326812023887669e+03 2.058608356096401621e+03 2.054438801982684708e+03 2.049832222763573554e+03 2.044802763845848858e+03 2.039364520189357336e+03 2.033531435759766509e+03 2.027317228138277187e+03 2.020735340372246355e+03 2.013798921215933206e+03 2.006520833923905002e+03 1.998913692758952038e+03 1.990989925400390803e+03 1.982761858525106163e+03 1.974241823017743172e+03 1.965442274579204195e+03 1.956375924969644529e+03 1.947055878762894281e+03 1.937495770315853861e+03 1.927709895673955543e+03 1.917713334339850235e+03 1.907522056217899490e+03 1.897153009596494485e+03 1.886624186723222010e+03 1.875954664340250702e+03 1.865164617452327548e+03 1.854275305570106184e+03 1.843309031680670159e+03 1.832289075221178791e+03 1.821239601351229112e+03 1.810185549821641871e+03 1.799152507717339631e+03 1.788166571315980036e+03 1.777254203272165341e+03 1.766442092347761900e+03 1.755757024024842167e+03 1.745225771655438621e+03 1.734875019466180220e+03 1.724731330961089952e+03 1.714821179374151825e+03 1.705171061300708288e+03 1.695807721228000446e+03 1.686758524550929906e+03 1.678052031648218417e+03 1.669718848738382803e+03 1.661792867715070315e+03 1.654313066367147712e+03 1.647326140749100887e+03 1.640890422814544991e+03 1.635081894058293983e+03 1.630003890035011409e+03 1.625804011135412111e+03 1.622706959984486048e+03 1.621087405831461410e+03 1.621656007765081540e+03 1.626000000000000000e+03
1.433000000000000000e+03 1.442593351794982937e+03 1.455416753458201129e+03 1.470389870721020543e+03 1.486713333402416538e+03 1.503854341458449881e+03 1.521460249043237582e+03 1.539293095938423448e+03 1.557188908328755133e+03 1.575033222555258362e+03 1.592745995315305663e+03 1.610271833088927224e+03 1.627573313365516242e+03 1.644626196769931084e+03 1.661415869476588341e+03 1.677934635788439209e+03 1.694179628292895814e+03 1.710151183417905941e+03 1.725851576549794800e+03 1.741284039504744669e+03 1.756452002153268950e+03 1.771358513416279266e+03 1.786005806750795500e+03 1.800394982740197975e+03 1.814525787152347220e+03 1.828396467252796128e+03 1.842003692562083870e+03 1.855342528857553134e+03 1.868406456225856800e+03 1.881187423520866105e+03 1.893675932791679315e+03 1.905861148209183739e+03 1.917731024806691266e+03 1.929272453010134768e+03 1.940471415499191608e+03 1.951313153432006402e+03 1.961782339492220217e+03 1.971863255579952238e+03 1.981539973266210836e+03 1.990796535359281734e+03 1.999617137088971049e+03 2.007986305499485979e+03 2.015889075657200920e+03 2.023311162232814468e+03 2.030239124920284894e+03 2.036660526023309330e+03 2.042564078393453201e+03 2.047939781764019017e+03 2.052779045413077256e+03 2.057074795029946472e+03 2.060821561671897143e+03 2.064015550798523691e+03 2.066654689571902054e+03 2.068738650917278392e+03 2.070268853251139262e+03 2.071248435293979583e+03 2.071682205979973332e+03 2.071576570135435759e+03 2.070939431297202646e+03 2.069780073752121098e+03 2.068109026568232366e+03 2.065937913024708450e+03 2.063279289399892150e+03 2.060146477516013874e+03 2.056553395740664200e+03 2.052514393289672171e+03 2.048044092651095980e+03 2.043157244750195105e+03 2.037868601103074752e+03 2.032192806672232109e+03 2.026144316458119874e+03 2.019737338061107721e+03 2.012985801557635568e+03 2.005903357086693404e+03 1.998503399574672130e+03 1.990799119075604949e+03 1.982803574306862629e+03 1.974529786152072575e+03 1.965990847214308815e+03 1.957200042959295843e+03 1.948170979610167024e+03 1.938917713755281738e+03 1.929454878614462814e+03 1.919797802075531990e+03 1.909962611954001204e+03 1.899966324429989299e+03 1.889826912258385846e+03 1.879563350107564929e+03 1.869195635232430050e+03 1.858744782602116175e+03 1.848232794554468455e+03 1.837682606013763689e+03 1.827118007263855134e+03 1.816563547199929644e+03 1.806044420878894925e+03 1.795586346049625263e+03 1.785215434178071746e+03 1.774958062308206536e+03 1.764840752950922251e+03 1.754890070118721042e+03 1.745132540693580268e+03 1.735594611623655283e+03 1.726302655120012787e+03 1.717283036242860135e+03 1.708562260272565936e+03 1.700167221409477861e+03 1.692125580186961997e+03 1.684466305435283175e+03 1.677220429406254652e+03 1.670422085249937481e+03 1.664109932202401069e+03 1.658329144103495992e+03 1.653134287292205045e+03 1.648593762373689970e+03 1.644797334280880705e+03 1.641870389240687928e+03 1.640003684740151812e+03 1.639518378368979938e+03 1.641000000000000000e+03
1.415000000000000000e+03 1.430610289964872663e+03 1.446156141564768859e+03 1.462493570927381143e+03 1.479602996639081539e+03 1.497265595289890371e+03 1.515257319969579839e+03 1.533395086740250918e+03 1.551540271474509154e+03 1.569591714495650649e+03 1.587477551239016975e+03 1.605148190114103272e+03 1.622570738814505603e+03 1.639724678844308755e+03 1.656598521630912956e+03 1.673187219125135471e+03 1.689490154190914836e+03 1.705509579563974967e+03 1.721249406655048006e+03 1.736714269263040705e+03 1.751908804806910666e+03 1.766837108808385437e+03 1.781502328294942572e+03 1.795906367369946111e+03 1.810049683985540923e+03 1.823931161368223002e+03 1.837548040901665217e+03 1.850895905813599256e+03 1.863968706940591574e+03 1.876758823313903576e+03 1.889257151445568070e+03 1.901453218092002317e+03 1.913335312004028310e+03 1.924890630787235750e+03 1.936105439527989120e+03 1.946965238306878973e+03 1.957454936131416162e+03 1.967559029174205534e+03 1.977261781498437358e+03 1.986547406684167754e+03 1.995400248932154682e+03 2.003804962314726254e+03 2.011746686866899836e+03 2.019211220171561763e+03 2.026185183000517782e+03 2.032656177443495153e+03 2.038612935808205748e+03 2.044045458427510312e+03 2.048945138386864528e+03 2.053304871108736734e+03 2.057119146720905974e+03 2.060384123209628342e+03 2.063097678529258701e+03 2.065259440114075460e+03 2.066870790616638260e+03 2.067934849174316696e+03 2.068456428069272988e+03 2.068441965278983844e+03 2.067899434090727937e+03 2.066838231646682289e+03 2.065269048966153605e+03 2.063203725626489359e+03 2.060655092843580405e+03 2.057636809147876193e+03 2.054163193177540961e+03 2.050249058287062326e+03 2.045909553683600052e+03 2.041160016648172132e+03 2.036015840075325741e+03 2.030492359081670202e+03 2.024604759806317361e+03 2.018368012777148806e+03 2.011796832373734333e+03 2.004905663012908235e+03 1.997708691751469132e+03 1.990219886078544732e+03 1.982453054793822957e+03 1.974421929071081649e+03 1.966140260119818322e+03 1.957621929307114897e+03 1.948881066207224421e+03 1.939932169821254774e+03 1.930790228160339893e+03 1.921470831512465338e+03 1.911990275008434310e+03 1.902365646553107126e+03 1.892614896775409079e+03 1.882756888351970474e+03 1.872811422849005339e+03 1.862799244078027186e+03 1.852742017846013823e+03 1.842662288873771558e+03 1.832583416534182788e+03 1.822529491905095711e+03 1.812525239424750225e+03 1.802595907170640203e+03 1.792767150450318923e+03 1.783064913993534901e+03 1.773515318569673127e+03 1.764144558320822853e+03 1.754978815487110751e+03 1.746044199472928995e+03 1.737366717281925958e+03 1.728972282077054842e+03 1.720886765702524144e+03 1.713136098903972425e+03 1.705746418770678702e+03 1.698744254996486234e+03 1.692156732147238472e+03 1.686011739318039417e+03 1.680337972048313986e+03 1.675164664472941467e+03 1.670520655076165895e+03 1.666432038733172931e+03 1.662916674303075069e+03 1.659971091397971577e+03 1.657537335928164339e+03 1.655413335620842872e+03 1.653000000000000000e+03
